# This PCD file was generated using the MATLAB® pcwrite function
# from Computer Vision Toolbox®.
# .PCD v.7 - Point Cloud Data file format
VERSION .7
FIELDS x y z intensity
SIZE 8 8 8 8
TYPE F F F F
COUNT 1 1 1 1
WIDTH 639
HEIGHT 1
VIEWPOINT 0 0 0 1 0 0 0
POINTS 639
DATA ascii
9.282440185546875 -13.641273498535156 0.630979776382446 0.000000000000000
9.282469749450684 -23.867355346679688 2.064940452575684 0.000000000000000
9.285875320434570 -14.775442123413086 0.768035113811493 0.000000000000000
9.287011146545410 -14.686057090759277 3.614234209060669 0.000000000000000
9.288847923278809 -19.281847000122070 0.242815494537354 0.000000000000000
9.291109085083008 -21.749032974243164 0.268317699432373 0.000000000000000
9.292321205139160 -13.191759109497070 0.028162620961666 0.000000000000000
9.298855781555176 -18.517692565917969 2.757454872131348 0.000000000000000
9.302797317504883 -14.756594657897949 0.365403324365616 0.000000000000000
9.309553146362305 -17.288270950317383 1.780058026313782 0.000000000000000
9.310395240783691 -20.880094528198242 -1.322206497192383 1.000000000000000
9.310979843139648 -18.913240432739258 0.360607951879501 0.000000000000000
9.310996055603027 23.962987899780273 1.428318262100220 0.000000000000000
9.313246726989746 -11.928565025329590 -0.438581764698029 0.000000000000000
9.315873146057129 -12.262539863586426 -0.357539087533951 0.000000000000000
9.316792488098145 -17.736843109130859 1.151698231697083 0.000000000000000
9.316849708557129 -17.398447036743164 -0.003444581758231 0.000000000000000
9.321165084838867 -7.848871231079102 -0.916240036487579 0.000000000000000
9.323843002319336 -7.915871143341064 -0.566098153591156 0.000000000000000
9.324026107788086 -7.795818805694580 -0.913840711116791 0.000000000000000
9.324315071105957 -21.162052154541016 -0.359242737293243 0.000000000000000
9.324851989746094 -16.684175491333008 0.326948463916779 0.000000000000000
9.325390815734863 -28.085529327392578 2.214738845825195 0.000000000000000
9.325937271118164 -21.335060119628906 2.480151891708374 0.000000000000000
9.326313972473145 -14.766459465026855 0.970333337783813 0.000000000000000
9.326408386230469 24.022554397583008 1.481345176696777 0.000000000000000
9.328290939331055 -19.487974166870117 0.328091144561768 0.000000000000000
9.332145690917969 -19.200023651123047 -0.085696145892143 0.000000000000000
9.337226867675781 -19.710298538208008 0.289316833019257 0.000000000000000
9.338172912597656 -11.953176498413086 1.252398967742920 0.000000000000000
9.340970039367676 24.040130615234375 1.830632925033569 0.000000000000000
9.341273307800293 -17.763864517211914 0.266237288713455 0.000000000000000
9.342356681823730 -21.862655639648438 1.963024258613586 0.000000000000000
9.343644142150879 -12.498087882995605 0.776846706867218 0.000000000000000
9.344184875488281 -16.568378448486328 2.160522699356079 0.000000000000000
9.351876258850098 -12.321535110473633 0.324021130800247 0.000000000000000
9.354247093200684 -16.904024124145508 0.887436032295227 0.000000000000000
9.364943504333496 -12.249723434448242 0.797302603721619 0.000000000000000
9.367608070373535 24.128675460815430 1.887125492095947 0.000000000000000
9.368206977844238 -11.736188888549805 0.314555168151855 0.000000000000000
9.368494987487793 -31.522436141967773 2.981208801269531 0.000000000000000
9.374500274658203 -11.913719177246094 0.783876478672028 0.000000000000000
9.374528884887695 -12.527541160583496 1.291896462440491 0.000000000000000
9.375022888183594 -28.551225662231445 1.785359263420105 0.000000000000000
9.376302719116211 -18.188055038452148 1.018691539764404 0.000000000000000
9.376323699951172 -29.903427124023438 1.439536929130554 0.000000000000000
9.382798194885254 -6.049582481384277 -0.023381808772683 0.000000000000000
9.383679389953613 -13.156404495239258 -0.033845394849777 0.000000000000000
9.384696960449219 -12.331675529479980 -0.776886284351349 0.000000000000000
9.392945289611816 -17.664815902709961 2.131049633026123 0.000000000000000
9.392963409423828 -21.039594650268555 -0.933482050895691 1.000000000000000
9.396858215332031 -17.401622772216797 1.984434843063354 0.000000000000000
9.400031089782715 -16.252492904663086 0.429345011711121 0.000000000000000
9.400192260742188 -10.069192886352539 -0.161088839173317 0.000000000000000
9.401161193847656 -13.162439346313477 0.400958806276321 0.000000000000000
9.406729698181152 -20.220685958862305 1.669039726257324 0.000000000000000
9.408158302307129 -13.503346443176270 1.434068202972412 0.000000000000000
9.409113883972168 -14.143635749816895 1.435434699058533 0.000000000000000
9.411062240600586 -14.846062660217285 1.383390784263611 0.000000000000000
9.413794517517090 -11.566751480102539 -0.891243040561676 0.000000000000000
9.415608406066895 -16.965950012207031 1.190170288085938 0.000000000000000
9.420949935913086 -13.866668701171875 1.904113054275513 0.000000000000000
9.422773361206055 -12.493552207946777 0.598421990871429 0.000000000000000
9.424683570861816 -12.788468360900879 0.974421262741089 0.000000000000000
9.427582740783691 -17.777086257934570 0.266927033662796 0.000000000000000
9.428590774536133 -17.882156372070312 1.278941392898560 0.000000000000000
9.431054115295410 -16.543788909912109 0.179482817649841 0.000000000000000
9.435447692871094 -17.312305450439453 1.247371912002563 0.000000000000000
9.440114974975586 -17.144559860229492 0.409968823194504 0.000000000000000
9.442399978637695 -14.244833946228027 1.714864730834961 0.000000000000000
9.445756912231445 -6.697626113891602 -0.870652973651886 0.000000000000000
9.446398735046387 -16.072700500488281 0.426327258348465 0.000000000000000
9.448697090148926 -21.091217041015625 -1.158619999885559 1.000000000000000
9.453475952148438 -14.227545738220215 0.587558329105377 0.000000000000000
9.456292152404785 -21.009815216064453 0.438364684581757 0.000000000000000
9.456954956054688 -14.803930282592773 0.570471644401550 0.000000000000000
9.457110404968262 -17.644086837768555 2.132320880889893 0.000000000000000
9.458817481994629 -20.794898986816406 1.401266217231750 0.000000000000000
9.459087371826172 -12.774361610412598 0.730138719081879 0.000000000000000
9.468850135803223 -14.822551727294922 1.112759828567505 0.000000000000000
9.469949722290039 -12.046266555786133 0.527056157588959 0.000000000000000
9.471104621887207 -14.507050514221191 1.330046176910400 0.000000000000000
9.475341796875000 -8.120776176452637 -0.145934134721756 0.000000000000000
9.478315353393555 -12.100317955017090 0.883573174476624 0.000000000000000
9.480077743530273 -11.791681289672852 1.015540361404419 0.000000000000000
9.481719017028809 -7.781722068786621 -0.662163317203522 1.000000000000000
9.482141494750977 -7.075238704681396 -0.707028925418854 0.000000000000000
9.484167098999023 -17.587526321411133 2.961339950561523 0.000000000000000
9.484951019287109 -11.916105270385742 -0.236595705151558 0.000000000000000
9.485060691833496 -12.675250053405762 -0.154737040400505 0.000000000000000
9.491193771362305 -16.807098388671875 2.568558931350708 0.000000000000000
9.492228507995605 -12.735728263854980 0.943683087825775 0.000000000000000
9.492343902587891 -7.573841571807861 -0.095377780497074 0.000000000000000
9.493452072143555 -15.027605056762695 1.611405849456787 0.000000000000000
9.493729591369629 -7.032429218292236 -0.888347983360291 0.000000000000000
9.498672485351562 -32.130790710449219 2.572218418121338 0.000000000000000
9.499073028564453 -13.456816673278809 0.091996528208256 0.000000000000000
9.500822067260742 -15.156182289123535 -0.071806848049164 0.000000000000000
9.501767158508301 -12.598288536071777 -0.366359204053879 0.000000000000000
9.502151489257812 -29.328193664550781 1.772196650505066 0.000000000000000
9.503125190734863 -14.858480453491211 0.606671452522278 0.000000000000000
9.506508827209473 -19.991836547851562 1.443175911903381 0.000000000000000
9.506888389587402 -13.656229019165039 -0.386320501565933 0.000000000000000
9.507154464721680 -11.620437622070312 1.123638987541199 0.000000000000000
9.508934974670410 -16.669586181640625 0.807697057723999 0.000000000000000
9.509878158569336 24.224035263061523 1.445847749710083 0.000000000000000
9.510139465332031 -8.086896896362305 -0.098048098385334 0.000000000000000
9.512290954589844 24.250083923339844 1.497414350509644 0.000000000000000
9.512411117553711 -13.292186737060547 1.002583742141724 0.000000000000000
9.515873908996582 -13.814150810241699 1.061238408088684 0.000000000000000
9.519174575805664 -14.983626365661621 0.099145360291004 0.000000000000000
9.521080970764160 -18.816701889038086 1.293514251708984 0.000000000000000
9.521545410156250 -5.419106483459473 -0.086047343909740 0.000000000000000
9.526310920715332 -23.664012908935547 3.123137950897217 0.000000000000000
9.527675628662109 -14.325110435485840 0.360377162694931 0.000000000000000
9.529959678649902 -18.977912902832031 1.794461727142334 0.000000000000000
9.530787467956543 -13.984189033508301 2.508049726486206 0.000000000000000
9.533348083496094 -12.896758079528809 0.674987137317657 0.000000000000000
9.534207344055176 -24.464061737060547 1.711722135543823 0.000000000000000
9.534836769104004 -12.349105834960938 2.666850090026855 0.000000000000000
9.537142753601074 -16.620485305786133 0.990844726562500 0.000000000000000
9.539040565490723 -17.030391693115234 2.597579479217529 0.000000000000000
9.540054321289062 -16.871606826782227 0.480456709861755 0.000000000000000
9.541463851928711 -13.900579452514648 -0.359058290719986 0.000000000000000
9.541480064392090 -1.648785710334778 -0.504069507122040 0.000000000000000
9.543237686157227 -20.670505523681641 -1.492238044738770 1.000000000000000
9.543752670288086 -15.209329605102539 3.734789848327637 0.000000000000000
9.548136711120605 -17.153207778930664 1.128512859344482 0.000000000000000
9.552229881286621 -7.187932491302490 -0.185710221529007 0.000000000000000
9.552349090576172 -11.974161148071289 -0.443911969661713 0.000000000000000
9.553830146789551 -21.341856002807617 -0.497963428497314 1.000000000000000
9.558593750000000 -19.570266723632812 0.079827696084976 0.000000000000000
9.559486389160156 -7.724832534790039 -0.190929263830185 0.000000000000000
9.564000129699707 -20.833841323852539 -1.281661748886108 1.000000000000000
9.565442085266113 -14.215577125549316 0.688180029392242 0.000000000000000
9.565527915954590 -18.141870498657227 0.666026294231415 0.000000000000000
9.565723419189453 -17.241401672363281 2.239522218704224 0.000000000000000
9.568994522094727 -17.166698455810547 1.712548375129700 0.000000000000000
9.570259094238281 -14.064245223999023 0.912379622459412 0.000000000000000
9.571501731872559 -14.296658515930176 0.327346771955490 0.000000000000000
9.571931838989258 -13.519923210144043 1.574636340141296 0.000000000000000
9.573925018310547 -14.618792533874512 -0.775190293788910 0.000000000000000
9.574327468872070 -21.729469299316406 0.360584437847137 0.000000000000000
9.578266143798828 -12.980257987976074 -0.374529421329498 0.000000000000000
9.578943252563477 -11.829855918884277 1.021701574325562 0.000000000000000
9.580425262451172 -16.008993148803711 2.284144163131714 0.000000000000000
9.584815025329590 -20.955343246459961 -1.066542983055115 1.000000000000000
9.591876029968262 -2.366466283798218 -0.895626664161682 0.000000000000000
9.594614028930664 -12.281430244445801 1.046078920364380 0.000000000000000
9.597537994384766 -11.821566581726074 0.172752484679222 0.000000000000000
9.602181434631348 -19.218658447265625 1.607842564582825 0.000000000000000
9.603001594543457 -17.983310699462891 0.231289580464363 0.000000000000000
9.604577064514160 -20.161766052246094 1.455926537513733 0.000000000000000
9.605128288269043 -16.882003784179688 0.705427289009094 0.000000000000000
9.605621337890625 -11.605425834655762 0.576105356216431 0.000000000000000
9.608330726623535 -16.919906616210938 0.931218028068542 0.000000000000000
9.611639976501465 -15.934654235839844 2.278311014175415 0.000000000000000
9.611716270446777 -21.199728012084961 -0.719306170940399 1.000000000000000
9.611987113952637 -7.522953510284424 -1.106532335281372 0.000000000000000
9.615278244018555 -17.307929992675781 0.148595944046974 0.000000000000000
9.620529174804688 -22.810514450073242 1.661671400070190 0.000000000000000
9.632066726684570 -21.827465057373047 1.877683281898499 0.000000000000000
9.633786201477051 -14.375576019287109 1.428820967674255 0.000000000000000
9.635139465332031 -21.608388900756836 1.907731175422668 0.000000000000000
9.635639190673828 -15.004441261291504 -0.037347223609686 0.000000000000000
9.637980461120605 -20.268316268920898 1.809676051139832 0.000000000000000
9.639450073242188 -15.611251831054688 0.137698918581009 0.000000000000000
9.642010688781738 -8.302518844604492 -0.002220757072791 0.000000000000000
9.644563674926758 -14.257820129394531 0.956354200839996 0.000000000000000
9.648822784423828 -22.374214172363281 2.983143568038940 0.000000000000000
9.649211883544922 -11.316158294677734 -0.116803221404552 0.000000000000000
9.649310111999512 -17.869127273559570 -0.003544414648786 0.000000000000000
9.651154518127441 -25.378810882568359 0.047389153391123 0.000000000000000
9.651568412780762 -6.318696498870850 -0.024160921573639 0.000000000000000
9.655890464782715 -30.853494644165039 0.428855299949646 0.000000000000000
9.656690597534180 -20.631702423095703 1.134045124053955 0.000000000000000
9.657170295715332 -22.052955627441406 1.476692676544189 0.000000000000000
9.658414840698242 -19.501169204711914 2.068602561950684 0.000000000000000
9.664020538330078 -26.356853485107422 1.559678316116333 0.000000000000000
9.667153358459473 -15.745118141174316 -0.003224670654163 0.000000000000000
9.669299125671387 -15.253435134887695 0.031520631164312 0.000000000000000
9.669697761535645 -19.424968719482422 1.833530426025391 0.000000000000000
9.671060562133789 -15.139091491699219 1.413833022117615 0.000000000000000
9.673319816589355 -23.081804275512695 2.066375970840454 0.000000000000000
9.673515319824219 -18.783901214599609 1.418166875839233 0.000000000000000
9.673743247985840 -17.331848144531250 0.873558580875397 0.000000000000000
9.675708770751953 -12.862973213195801 1.018303990364075 0.000000000000000
9.676578521728516 -14.298697471618652 1.425529599189758 0.000000000000000
9.677712440490723 -7.567587375640869 -0.261628806591034 1.000000000000000
9.684201240539551 -12.713251113891602 -0.278959274291992 0.000000000000000
9.686160087585449 -32.328693389892578 2.070063591003418 0.000000000000000
9.687943458557129 -13.737607002258301 0.578207969665527 0.000000000000000
9.691047668457031 24.454332351684570 1.512106180191040 0.000000000000000
9.694011688232422 -18.299533843994141 0.553124785423279 0.000000000000000
9.697887420654297 -14.062086105346680 0.587558329105377 0.000000000000000
9.697930335998535 -21.181138992309570 0.756517648696899 0.000000000000000
9.699927330017090 -17.856122970581055 1.842174053192139 0.000000000000000
9.703044891357422 -19.573236465454102 2.192103624343872 0.000000000000000
9.704224586486816 -11.838950157165527 0.497117906808853 0.000000000000000
9.708302497863770 -7.441099643707275 -0.542615473270416 0.000000000000000
9.709465980529785 -12.672844886779785 1.954574108123779 0.000000000000000
9.711318969726562 -16.826602935791016 1.529011011123657 0.000000000000000
9.715189933776855 -13.857219696044922 0.387004941701889 0.000000000000000
9.716240882873535 -14.194463729858398 1.953769683837891 0.000000000000000
9.716623306274414 -19.051858901977539 1.724480867385864 0.000000000000000
9.718957901000977 -12.440593719482422 0.816305637359619 0.000000000000000
9.726727485656738 -12.354250907897949 -0.365059405565262 0.000000000000000
9.729848861694336 24.532239913940430 1.466261744499207 0.000000000000000
9.730688095092773 -18.003290176391602 1.610608577728271 0.000000000000000
9.732460021972656 -14.064897537231445 -0.068659678101540 0.000000000000000
9.732542991638184 -13.048174858093262 0.247191950678825 0.000000000000000
9.735059738159180 -11.905786514282227 1.121280670166016 0.000000000000000
9.742677688598633 -7.904114723205566 -0.508274078369141 0.000000000000000
9.744038581848145 -17.158884048461914 1.248382210731506 0.000000000000000
9.745137214660645 -5.529036521911621 -0.842460930347443 0.000000000000000
9.745716094970703 -15.531186103820801 1.089339494705200 0.000000000000000
9.748791694641113 -14.844501495361328 -0.139485284686089 0.000000000000000
9.749204635620117 -8.348998069763184 -0.100812673568726 0.000000000000000
9.749470710754395 -20.035507202148438 1.667547106742859 0.000000000000000
9.750251770019531 -15.049122810363770 0.547860980033875 0.000000000000000
9.752003669738770 -19.357704162597656 1.622171759605408 0.000000000000000
9.754639625549316 -36.501621246337891 1.590164184570312 0.000000000000000
9.756405830383301 -12.083044052124023 0.235834479331970 0.000000000000000
9.760399818420410 -14.564510345458984 1.176805257797241 0.000000000000000
9.761920928955078 -23.733556747436523 1.524648427963257 0.000000000000000
9.767789840698242 -22.192686080932617 3.593483209609985 0.000000000000000
9.768226623535156 -21.610086441040039 -0.186263129115105 0.000000000000000
9.768418312072754 -11.946582794189453 -0.061947859823704 0.000000000000000
9.769248008728027 -19.391933441162109 1.290032386779785 0.000000000000000
9.769597053527832 -16.031581878662109 0.826248943805695 0.000000000000000
9.771678924560547 -12.769734382629395 0.120677918195724 0.000000000000000
9.771992683410645 -10.992539405822754 -0.765669941902161 0.000000000000000
9.773086547851562 -15.712121009826660 0.778766632080078 0.000000000000000
9.773172378540039 -29.121078491210938 1.765769004821777 0.000000000000000
9.774654388427734 -11.831494331359863 0.527881205081940 0.000000000000000
9.775794982910156 -13.613482475280762 -0.067278772592545 0.000000000000000
9.775946617126465 -13.091103553771973 -0.222438842058182 0.000000000000000
9.779164314270020 -20.185995101928711 1.159806728363037 0.000000000000000
9.783211708068848 -29.960102081298828 1.205250859260559 0.000000000000000
9.784442901611328 -13.687951087951660 -0.293689101934433 0.000000000000000
9.789380073547363 -17.531837463378906 0.574908375740051 0.000000000000000
9.789628028869629 -7.251614570617676 -0.353067040443420 0.000000000000000
9.790887832641602 -17.669771194458008 0.345556944608688 0.000000000000000
9.792098045349121 -20.943841934204102 -1.292602896690369 0.000000000000000
9.793601036071777 -15.133969306945801 0.239125460386276 0.000000000000000
9.795780181884766 -22.334468841552734 1.589939475059509 0.000000000000000
9.797758102416992 -11.494430541992188 0.113353192806244 0.000000000000000
9.798209190368652 -17.043739318847656 0.147545278072357 0.000000000000000
9.800415039062500 -14.436583518981934 -1.042766332626343 0.000000000000000
9.807705879211426 -34.230587005615234 -0.074577160179615 0.000000000000000
9.807865142822266 -18.514455795288086 -0.084106504917145 0.000000000000000
9.807888984680176 -20.000949859619141 0.937547624111176 0.000000000000000
9.809805870056152 -15.738061904907227 0.744846105575562 0.000000000000000
9.814528465270996 -15.400976181030273 0.242255762219429 0.000000000000000
9.817014694213867 -22.293970108032227 2.122629404067993 0.000000000000000
9.818601608276367 -12.481249809265137 -0.704460620880127 0.000000000000000
9.818734169006348 -12.414398193359375 0.027625057846308 0.000000000000000
9.819281578063965 -16.289175033569336 0.069711789488792 0.000000000000000
9.826063156127930 -11.978632926940918 0.294779509305954 0.000000000000000
9.826591491699219 -19.712539672851562 1.223733901977539 0.000000000000000
9.834639549255371 -6.277187347412109 -0.697245597839355 0.000000000000000
9.834897994995117 -14.760195732116699 0.985421955585480 0.000000000000000
9.835361480712891 -13.075217247009277 1.287670731544495 0.000000000000000
9.837204933166504 -15.085636138916016 1.347829461097717 0.000000000000000
9.837840080261230 -12.559298515319824 1.163164973258972 0.000000000000000
9.839252471923828 -15.906876564025879 -0.003264463739470 0.000000000000000
9.839754104614258 -11.731551170349121 0.085517898201942 0.000000000000000
9.839910507202148 -9.528543472290039 -1.029907822608948 0.000000000000000
9.843299865722656 -16.825904846191406 1.158135056495667 0.000000000000000
9.847764968872070 -18.287755966186523 0.235645830631256 0.000000000000000
9.852620124816895 -11.705336570739746 -0.032044220715761 0.000000000000000
9.852934837341309 -13.720904350280762 0.971035182476044 0.000000000000000
9.854246139526367 -7.937752723693848 -0.512646019458771 0.000000000000000
9.854786872863770 -12.589079856872559 0.119987472891808 0.000000000000000
9.855559349060059 -10.781115531921387 -0.170817777514458 0.000000000000000
9.857419967651367 -17.021369934082031 1.092817664146423 0.000000000000000
9.857654571533203 -11.183674812316895 -0.346119403839111 0.000000000000000
9.858836174011230 -12.768735885620117 -0.064757823944092 0.000000000000000
9.859298706054688 -13.107039451599121 0.784938335418701 0.000000000000000
9.860967636108398 -16.362203598022461 1.355982422828674 0.000000000000000
9.862132072448730 -18.863716125488281 1.675258755683899 0.000000000000000
9.863873481750488 -12.867866516113281 1.469838976860046 0.000000000000000
9.865587234497070 -12.352212905883789 0.604536116123199 0.000000000000000
9.869041442871094 -17.911710739135742 1.096826434135437 0.000000000000000
9.869534492492676 -11.107731819152832 -0.173764511942863 0.000000000000000
9.869660377502441 -21.023597717285156 -1.119641065597534 1.000000000000000
9.869799613952637 -16.736885070800781 0.257748246192932 0.000000000000000
9.872621536254883 -12.304988861083984 0.027534300461411 0.000000000000000
9.873314857482910 24.662576675415039 1.936863183975220 0.000000000000000
9.874738693237305 -13.070016860961914 0.941651642322540 0.000000000000000
9.875004768371582 -18.167831420898438 3.064547061920166 0.000000000000000
9.878437995910645 -14.267339706420898 1.030982136726379 0.000000000000000
9.885310173034668 -14.458230972290039 -1.316926360130310 0.000000000000000
9.886014938354492 -14.034591674804688 1.351065754890442 0.000000000000000
9.887659072875977 24.698408126831055 1.529322981834412 0.000000000000000
9.887854576110840 -6.654136657714844 -0.896145761013031 0.000000000000000
9.888027191162109 -20.912612915039062 -0.848228514194489 1.000000000000000
9.888650894165039 -15.532839775085449 0.491820722818375 0.000000000000000
9.898451805114746 -15.548233985900879 0.775739014148712 0.000000000000000
9.899265289306641 -6.950094699859619 -0.118222542107105 0.000000000000000
9.900483131408691 -12.852326393127441 1.088939905166626 0.000000000000000
9.901227951049805 -16.187761306762695 1.237082242965698 0.000000000000000
9.903180122375488 -25.504192352294922 2.153231620788574 0.000000000000000
9.904875755310059 -15.287778854370117 -0.003179291961715 0.000000000000000
9.909771919250488 -29.189889907836914 2.247505903244019 0.000000000000000
9.910594940185547 -18.081085205078125 1.959967970848083 0.000000000000000
9.915347099304199 -13.444916725158691 0.863813340663910 0.000000000000000
9.919231414794922 -15.132796287536621 0.970434248447418 0.000000000000000
9.929484367370605 -15.525107383728027 1.201432108879089 0.000000000000000
9.929720878601074 -12.297690391540527 -0.245542600750923 0.000000000000000
9.931138038635254 -11.529313087463379 -0.909378111362457 0.000000000000000
9.933844566345215 -11.442899703979492 0.288311719894409 0.000000000000000
9.934304237365723 -18.380010604858398 0.357392519712448 0.000000000000000
9.935467720031738 -15.552995681762695 1.965819239616394 0.000000000000000
9.936111450195312 -18.579013824462891 1.576796174049377 0.000000000000000
9.936259269714355 -11.335719108581543 1.069946050643921 0.000000000000000
9.938526153564453 -6.426815509796143 -1.072946310043335 0.000000000000000
9.939423561096191 -27.885425567626953 0.847594916820526 0.000000000000000
9.940813064575195 -13.867787361145020 -1.447790026664734 0.000000000000000
9.944553375244141 -11.463718414306641 0.492833524942398 0.000000000000000
9.947432518005371 -13.936008453369141 0.260007053613663 0.000000000000000
9.949834823608398 -22.797046661376953 1.142562508583069 0.000000000000000
9.950493812561035 -32.796203613281250 0.717906177043915 0.000000000000000
9.953639030456543 -14.746880531311035 0.099368765950203 0.000000000000000
9.954096794128418 -18.089975357055664 0.710212647914886 0.000000000000000
9.954615592956543 -18.078964233398438 0.749561846256256 0.000000000000000
9.956178665161133 -20.852954864501953 -0.092761218547821 0.000000000000000
9.957288742065430 -14.532457351684570 0.910907924175262 0.000000000000000
9.958888053894043 -16.429836273193359 2.182191133499146 0.000000000000000
9.960764884948730 -12.248415946960449 0.725183010101318 0.000000000000000
9.969547271728516 -20.763397216796875 0.836524367332458 0.000000000000000
9.972855567932129 -12.341413497924805 -1.193061470985413 0.000000000000000
9.974252700805664 -13.687142372131348 -0.067985281348228 0.000000000000000
9.976217269897461 -16.192035675048828 0.983408689498901 0.000000000000000
9.978947639465332 -13.460699081420898 1.318740606307983 0.000000000000000
9.979204177856445 -12.174419403076172 0.269275814294815 0.000000000000000
9.981041908264160 -14.182635307312012 0.429903209209442 0.000000000000000
9.989899635314941 -13.067192077636719 0.344544708728790 0.000000000000000
9.991143226623535 -12.516582489013672 -0.156535401940346 0.000000000000000
9.991557121276855 -19.779062271118164 1.743988871574402 0.000000000000000
9.992059707641602 -20.220949172973633 0.212582156062126 0.000000000000000
9.992874145507812 -14.662192344665527 -1.197196841239929 0.000000000000000
9.996776580810547 -13.683401107788086 1.072098374366760 0.000000000000000
9.999501228332520 -16.882667541503906 1.014598488807678 0.000000000000000
10.001585960388184 -21.008371353149414 1.561751604080200 0.000000000000000
10.003698348999023 -15.762087821960449 0.355196386575699 0.000000000000000
10.008800506591797 -26.838274002075195 3.253423929214478 0.000000000000000
10.010459899902344 -16.469491958618164 0.514783024787903 0.000000000000000
10.012595176696777 -5.575685977935791 -0.288091450929642 0.000000000000000
10.013594627380371 -11.847811698913574 0.593224942684174 0.000000000000000
10.015490531921387 24.746938705444336 1.894920468330383 0.000000000000000
10.016346931457520 -10.767184257507324 -0.878834843635559 0.000000000000000
10.018240928649902 -27.152702331542969 3.287280797958374 0.000000000000000
10.018402099609375 -11.810787200927734 0.622042834758759 0.000000000000000
10.024668693542480 -12.289707183837891 -0.368216067552567 0.000000000000000
10.026309013366699 -19.041551589965820 2.159355640411377 0.000000000000000
10.029736518859863 -21.790176391601562 1.702624559402466 0.000000000000000
10.031238555908203 -21.070655822753906 -0.586637020111084 1.000000000000000
10.037471771240234 -14.623194694519043 0.985421955585480 0.000000000000000
10.044532775878906 -20.850502014160156 -0.092905730009079 0.000000000000000
10.048675537109375 24.848850250244141 1.540801048278809 0.000000000000000
10.051154136657715 -15.646668434143066 2.756098508834839 0.000000000000000
10.052629470825195 -11.179479598999023 -0.406821578741074 0.000000000000000
10.053414344787598 -14.314119338989258 -0.070217207074165 0.000000000000000
10.064443588256836 -11.576186180114746 -0.120478853583336 0.000000000000000
10.064959526062012 -17.424591064453125 2.285567522048950 0.000000000000000
10.067774772644043 -7.435088634490967 -0.098299428820610 0.000000000000000
10.069133758544922 -15.957375526428223 0.939336180686951 0.000000000000000
10.070007324218750 -20.053359985351562 1.203509807586670 0.000000000000000
10.070704460144043 -15.078139305114746 -0.003164630848914 0.000000000000000
10.071971893310547 -14.699834823608398 1.471280813217163 0.000000000000000
10.074512481689453 -15.582361221313477 0.139259919524193 0.000000000000000
10.075789451599121 -18.394657135009766 0.882714331150055 0.000000000000000
10.078669548034668 -20.153867721557617 0.688460290431976 0.000000000000000
10.080163955688477 -22.395921707153320 1.601128935813904 0.000000000000000
10.080590248107910 -19.042135238647461 1.529303550720215 0.000000000000000
10.080836296081543 -21.199625015258789 -0.274515211582184 1.000000000000000
10.081991195678711 24.931234359741211 1.960713982582092 0.000000000000000
10.089125633239746 -20.705026626586914 2.311113595962524 0.000000000000000
10.089233398437500 -16.504192352294922 0.405193954706192 0.000000000000000
10.095101356506348 -15.681956291198730 1.467812895774841 0.000000000000000
10.097622871398926 -19.332223892211914 2.188509225845337 0.000000000000000
10.100453376770020 -21.737701416015625 2.172978162765503 0.000000000000000
10.100642204284668 -20.864439010620117 1.869152069091797 0.000000000000000
10.103743553161621 -14.812645912170410 0.237852096557617 0.000000000000000
10.104494094848633 -20.425142288208008 0.608661532402039 0.000000000000000
10.106032371520996 -21.132658004760742 -1.129271626472473 1.000000000000000
10.118327140808105 -14.182229995727539 2.581936597824097 0.000000000000000
10.120410919189453 -12.120203018188477 0.907676875591278 0.000000000000000
10.123252868652344 -16.239036560058594 -0.003339862218127 0.000000000000000
10.130067825317383 -8.097152709960938 -0.301090478897095 0.000000000000000
10.132811546325684 -14.749949455261230 1.477534651756287 0.000000000000000
10.135771751403809 -7.827881813049316 -0.371143311262131 0.000000000000000
10.135972976684570 -11.974789619445801 2.325091600418091 0.000000000000000
10.136314392089844 -15.921862602233887 1.711080431938171 0.000000000000000
10.136608123779297 -18.341243743896484 -0.043890111148357 0.000000000000000
10.137239456176758 -33.257045745849609 -0.139567330479622 0.000000000000000
10.138400077819824 -16.098258972167969 0.654385685920715 0.000000000000000
10.140970230102539 -18.218231201171875 1.890205621719360 0.000000000000000
10.143798828125000 -19.529308319091797 1.137911915779114 0.000000000000000
10.145923614501953 -10.741023063659668 -0.144416034221649 0.000000000000000
10.147056579589844 -18.581680297851562 1.094741940498352 0.000000000000000
10.149085044860840 -9.408689498901367 -0.135267853736877 0.000000000000000
10.150417327880859 -19.174037933349609 0.204476952552795 0.000000000000000
10.151820182800293 -18.136285781860352 1.074706077575684 0.000000000000000
10.154298782348633 -15.706973075866699 0.787176668643951 0.000000000000000
10.154836654663086 -21.355245590209961 -1.003494620323181 1.000000000000000
10.156841278076172 -17.700441360473633 0.427476674318314 0.000000000000000
10.159604072570801 -15.006799697875977 0.240398794412613 0.000000000000000
10.168807983398438 -4.983627319335938 -1.202229738235474 0.000000000000000
10.169564247131348 -13.158826828002930 0.220608726143837 0.000000000000000
10.172638893127441 -22.217943191528320 1.169472098350525 0.000000000000000
10.174451828002930 -16.254734039306641 1.028488874435425 0.000000000000000
10.176119804382324 -14.772626876831055 -0.244219869375229 0.000000000000000
10.178213119506836 -14.921822547912598 1.716959118843079 0.000000000000000
10.180315971374512 -15.868434906005859 0.503568887710571 0.000000000000000
10.181152343750000 -18.163391113281250 1.036591172218323 0.000000000000000
10.186863899230957 24.952188491821289 1.549294710159302 0.000000000000000
10.192335128784180 -16.948150634765625 2.246293544769287 0.000000000000000
10.192666053771973 -7.713966846466064 -0.370448082685471 0.000000000000000
10.196855545043945 -19.176687240600586 1.039445877075195 0.000000000000000
10.199589729309082 -16.509387969970703 1.602280735969543 0.000000000000000
10.200723648071289 -13.099161148071289 0.762625992298126 0.000000000000000
10.202002525329590 -31.716558456420898 2.622103214263916 0.000000000000000
10.202053070068359 -17.497962951660156 1.086329340934753 0.000000000000000
10.202721595764160 -14.761006355285645 0.065768048167229 0.000000000000000
10.207331657409668 -13.611702919006348 0.945259571075439 0.000000000000000
10.218532562255859 -15.363832473754883 0.103054881095886 0.000000000000000
10.218835830688477 -16.101064682006836 1.537694215774536 0.000000000000000
10.219405174255371 -16.717128753662109 1.617750644683838 0.000000000000000
10.221042633056641 -32.743507385253906 2.434707880020142 0.000000000000000
10.225828170776367 -11.452241897583008 0.292116314172745 0.000000000000000
10.230899810791016 -13.771900177001953 0.359371960163116 0.000000000000000
10.234788894653320 -16.060449600219727 3.961239814758301 0.000000000000000
10.235237121582031 -13.044569015502930 1.663746356964111 0.000000000000000
10.237125396728516 -9.246383666992188 -0.187806993722916 0.000000000000000
10.238340377807617 -19.880670547485352 1.156295299530029 0.000000000000000
10.242568969726562 -11.890860557556152 0.751093268394470 0.000000000000000
10.242771148681641 -12.575897216796875 1.307827830314636 0.000000000000000
10.245278358459473 -28.336257934570312 0.168287977576256 0.000000000000000
10.246053695678711 -19.784387588500977 2.235634088516235 0.000000000000000
10.246481895446777 -22.835683822631836 2.180964231491089 0.000000000000000
10.249204635620117 -13.467654228210449 0.972871720790863 0.000000000000000
10.250802993774414 -17.253343582153320 2.974240541458130 0.000000000000000
10.255488395690918 -18.878828048706055 1.235028147697449 0.000000000000000
10.257000923156738 -13.501352310180664 0.648405075073242 0.000000000000000
10.258653640747070 -14.655227661132812 2.031866550445557 0.000000000000000
10.262650489807129 -8.107570648193359 -0.178059980273247 0.000000000000000
10.265558242797852 -12.585920333862305 1.058832049369812 0.000000000000000
10.273763656616211 -22.636831283569336 1.956456184387207 0.000000000000000
10.274829864501953 -7.619915962219238 -0.002232625149190 0.000000000000000
10.276257514953613 -16.210920333862305 1.214287161827087 0.000000000000000
10.279603004455566 -9.007355690002441 -0.107347123324871 0.000000000000000
10.284273147583008 -15.319626808166504 0.138479426503181 0.000000000000000
10.284531593322754 -16.325872421264648 1.481299042701721 0.000000000000000
10.285708427429199 -33.479949951171875 0.733654856681824 0.000000000000000
10.286184310913086 -9.046499252319336 -0.212799444794655 0.000000000000000
10.286365509033203 -16.409320831298828 0.815097868442535 0.000000000000000
10.288497924804688 -20.544755935668945 1.808325290679932 0.000000000000000
10.289340019226074 -16.542097091674805 0.520336747169495 0.000000000000000
10.290615081787109 -15.661198616027832 1.781307339668274 0.000000000000000
10.293040275573730 -14.521790504455566 0.543829858303070 0.000000000000000
10.307287216186523 -15.270830154418945 0.669132411479950 0.000000000000000
10.316639900207520 -20.032711029052734 0.818376898765564 0.000000000000000
10.341559410095215 -10.512264251708984 -1.108785510063171 0.000000000000000
10.348780632019043 -19.514139175415039 2.099641323089600 0.000000000000000
10.353871345520020 -15.043593406677246 0.803737223148346 0.000000000000000
10.354527473449707 -14.453453063964844 0.099301740527153 0.000000000000000
10.355291366577148 -20.859687805175781 0.398372262716293 0.000000000000000
10.357151031494141 -21.692779541015625 0.272719323635101 0.000000000000000
10.360948562622070 -14.669090270996094 -0.416958749294281 0.000000000000000
10.360976219177246 -10.754993438720703 -1.122881412506104 0.000000000000000
10.363072395324707 -20.163488388061523 1.434263110160828 0.000000000000000
10.363866806030273 -17.574707031250000 1.526942968368530 0.000000000000000
10.364640235900879 25.104223251342773 1.927772045135498 0.000000000000000
10.365688323974609 -17.445320129394531 1.928929448127747 0.000000000000000
10.369091033935547 -35.354133605957031 -0.218635410070419 0.000000000000000
10.369799613952637 25.149065017700195 1.563756942749023 0.000000000000000
10.371953010559082 -19.723861694335938 1.323955655097961 0.000000000000000
10.373260498046875 -15.253477096557617 1.238150238990784 0.000000000000000
10.374439239501953 -13.733400344848633 2.107206583023071 0.000000000000000
10.382610321044922 -15.267225265502930 -0.180461391806602 0.000000000000000
10.385202407836914 -13.048507690429688 1.453166127204895 0.000000000000000
10.386358261108398 -34.087104797363281 2.529298305511475 0.000000000000000
10.388265609741211 -15.481538772583008 0.068333677947521 0.000000000000000
10.389578819274902 -16.159225463867188 0.586950302124023 0.000000000000000
10.390723228454590 -13.017164230346680 0.093024171888828 0.000000000000000
10.392213821411133 -11.179833412170410 0.701138734817505 0.000000000000000
10.394596099853516 -13.855378150939941 1.430137634277344 0.000000000000000
10.399225234985352 -21.902688980102539 0.694194436073303 0.000000000000000
10.400332450866699 -35.460651397705078 0.348296940326691 0.000000000000000
10.402251243591309 -15.172778129577637 1.270256161689758 0.000000000000000
10.402258872985840 -14.134572029113770 1.381193995475769 0.000000000000000
10.408037185668945 -15.530917167663574 0.391623258590698 0.000000000000000
10.409084320068359 -21.143802642822266 1.854773163795471 0.000000000000000
10.409671783447266 -13.393016815185547 2.513913631439209 0.000000000000000
10.413160324096680 -21.181926727294922 -1.456034660339355 1.000000000000000
10.416787147521973 -13.949261665344238 1.854394555091858 0.000000000000000
10.417348861694336 -16.855279922485352 1.883507251739502 0.000000000000000
10.420489311218262 -10.157929420471191 -1.319243669509888 0.000000000000000
10.434314727783203 -20.128974914550781 0.387836545705795 0.000000000000000
10.437927246093750 -12.465482711791992 -0.221349790692329 0.000000000000000
10.445001602172852 -12.339881896972656 0.649332404136658 0.000000000000000
10.447291374206543 -23.622379302978516 1.335585117340088 0.000000000000000
10.447437286376953 -14.656503677368164 3.076616048812866 0.000000000000000
10.449944496154785 -8.082171440124512 -0.993318200111389 0.000000000000000
10.451066017150879 -12.579876899719238 0.751246333122253 0.000000000000000
10.451619148254395 -15.801456451416016 0.506025373935699 0.000000000000000
10.458533287048340 -13.020818710327148 0.317759215831757 0.000000000000000
10.459945678710938 -33.726020812988281 0.604023456573486 0.000000000000000
10.461897850036621 -21.404539108276367 -0.598900496959686 1.000000000000000
10.461941719055176 -8.998372077941895 -0.824668288230896 0.000000000000000
10.464790344238281 -34.766288757324219 3.291428089141846 0.000000000000000
10.465137481689453 -35.584991455078125 -0.077685244381428 0.000000000000000
10.465183258056641 -18.256978988647461 1.696832656860352 0.000000000000000
10.470371246337891 -18.322317123413086 0.847583472728729 0.000000000000000
10.470480918884277 -16.978330612182617 0.993035256862640 0.000000000000000
10.475643157958984 -15.175108909606934 0.102987855672836 0.000000000000000
10.477166175842285 -19.853229522705078 1.117537617683411 0.000000000000000
10.479907989501953 -35.275543212890625 -0.218374326825142 0.000000000000000
10.480018615722656 -11.573265075683594 0.297062277793884 0.000000000000000
10.480271339416504 -10.201945304870605 -0.423865824937820 0.000000000000000
10.480360984802246 -11.109438896179199 1.201993465423584 0.000000000000000
10.483751296997070 -7.894910335540771 -0.027486819773912 0.000000000000000
10.486046791076660 -18.993873596191406 1.247194766998291 0.000000000000000
10.486580848693848 -14.316555976867676 1.156934618949890 0.000000000000000
10.487231254577637 -14.721025466918945 2.678693294525146 0.000000000000000
10.488722801208496 -13.322087287902832 0.387736529111862 0.000000000000000
10.489071846008301 -13.666659355163574 2.553202629089355 0.000000000000000
10.494697570800781 -13.936040878295898 0.600071251392365 0.000000000000000
10.495317459106445 -21.488115310668945 2.716227531433105 0.000000000000000
10.499464988708496 -12.618856430053711 0.817220509052277 0.000000000000000
10.500552177429199 -11.508039474487305 0.955564677715302 0.000000000000000
10.500596046447754 -19.634513854980469 0.295365303754807 0.000000000000000
10.510563850402832 -8.913290023803711 -1.036206007003784 0.000000000000000
10.512692451477051 -16.015005111694336 0.511685848236084 0.000000000000000
10.513698577880859 -18.911130905151367 1.077163815498352 0.000000000000000
10.515430450439453 -14.861371040344238 1.650408864021301 0.000000000000000
10.519757270812988 -18.985172271728516 1.708211660385132 0.000000000000000
10.522655487060547 -14.107458114624023 1.765983223915100 0.000000000000000
10.523266792297363 -14.050372123718262 0.873902857303619 0.000000000000000
10.527487754821777 -11.625685691833496 0.057484738528728 0.000000000000000
10.528261184692383 -15.123385429382324 0.421389132738113 0.000000000000000
10.530066490173340 -10.922501564025879 0.989093244075775 0.000000000000000
10.530592918395996 -13.339786529541016 1.615516185760498 0.000000000000000
10.532963752746582 -16.569152832031250 0.750817000865936 0.000000000000000
10.532978057861328 -7.598298549652100 -0.102006472647190 0.000000000000000
10.533847808837891 -12.288315773010254 2.153832912445068 0.000000000000000
10.534484863281250 -16.066535949707031 0.956440329551697 0.000000000000000
10.536872863769531 -15.303761482238770 0.531979143619537 0.000000000000000
10.538143157958984 -21.139940261840820 0.948715627193451 0.000000000000000
10.538228988647461 -4.691701412200928 -0.867353916168213 0.000000000000000
10.539160728454590 -11.288427352905273 -0.121295653283596 0.000000000000000
10.539775848388672 -23.282314300537109 3.787582874298096 0.000000000000000
10.541008949279785 -14.218868255615234 0.030892312526703 0.000000000000000
10.542081832885742 -10.497649192810059 -0.659966528415680 0.000000000000000
10.543110847473145 -18.488536834716797 0.159733131527901 0.000000000000000
10.545192718505859 -21.919124603271484 0.089151918888092 0.000000000000000
10.552155494689941 -29.686342239379883 2.994837045669556 0.000000000000000
10.558709144592285 25.150127410888672 2.376803159713745 0.000000000000000
10.561244010925293 -16.872673034667969 0.761211037635803 0.000000000000000
10.563540458679199 -13.043025016784668 1.418257951736450 0.000000000000000
10.569889068603516 25.134958267211914 1.567429900169373 0.000000000000000
10.576436042785645 -14.611846923828125 3.751896142959595 0.000000000000000
10.578267097473145 -13.532748222351074 2.285743236541748 0.000000000000000
10.579059600830078 -21.124969482421875 -1.411910414695740 1.000000000000000
10.579414367675781 25.157608032226562 1.989800572395325 0.000000000000000
10.583747863769531 -11.940896034240723 1.286609411239624 0.000000000000000
10.584342002868652 -24.781072616577148 3.299103021621704 0.000000000000000
10.584686279296875 -19.958972930908203 -0.047316536307335 0.000000000000000
10.587337493896484 25.391962051391602 1.952694058418274 0.000000000000000
10.588569641113281 -14.092915534973145 1.768778800964355 0.000000000000000
10.599770545959473 -16.613340377807617 0.602097392082214 0.000000000000000
10.600283622741699 25.187549591064453 1.939666748046875 0.000000000000000
10.605730056762695 -19.115924835205078 1.088301420211792 0.000000000000000
10.605951309204102 -15.329508781433105 2.282199621200562 0.000000000000000
10.606307029724121 -10.912799835205078 2.025088310241699 0.000000000000000
10.606926918029785 -23.394775390625000 2.577488899230957 0.000000000000000
10.608571052551270 -19.950979232788086 0.733797490596771 0.000000000000000
10.612137794494629 25.215715408325195 1.519959688186646 1.000000000000000
10.612621307373047 -20.454591751098633 0.438440769910812 0.000000000000000
10.622630119323730 -13.640947341918945 1.734832882881165 0.000000000000000
10.623042106628418 -16.083797454833984 1.628757119178772 0.000000000000000
10.627058029174805 -17.308536529541016 0.932954967021942 0.000000000000000
10.627895355224609 -13.498854637145996 2.286270856857300 0.000000000000000
10.629782676696777 -23.421270370483398 1.627215504646301 0.000000000000000
10.630607604980469 -13.024197578430176 0.061619061976671 0.000000000000000
10.630954742431641 -13.290504455566406 0.160407349467278 0.000000000000000
10.631195068359375 -14.445650100708008 0.031304210424423 0.000000000000000
10.634174346923828 -17.927093505859375 1.158053994178772 0.000000000000000
10.638511657714844 -8.968299865722656 -0.216154530644417 0.000000000000000
10.643143653869629 -21.592609405517578 1.848102688789368 0.000000000000000
10.645220756530762 -13.007769584655762 2.491043806076050 0.000000000000000
10.647738456726074 -20.811086654663086 0.579482138156891 0.000000000000000
10.648838043212891 -30.679256439208984 2.944011688232422 0.000000000000000
10.649425506591797 -16.691165924072266 0.909461379051208 0.000000000000000
10.653544425964355 -37.476516723632812 2.991072654724121 0.000000000000000
10.653545379638672 -16.318214416503906 -0.003401297610253 0.000000000000000
10.653783798217773 -12.929588317871094 3.484718084335327 0.000000000000000
10.654420852661133 -21.178434371948242 1.317150473594666 0.000000000000000
10.658629417419434 -15.394163131713867 -0.039215423166752 0.000000000000000
10.662144660949707 -15.267353057861328 0.282782733440399 0.000000000000000
10.662771224975586 -13.111649513244629 -0.002949606627226 0.000000000000000
10.665157318115234 -19.053365707397461 0.457382440567017 0.000000000000000
10.670339584350586 -26.586202621459961 0.159999787807465 0.000000000000000
10.670383453369141 -4.506907463073730 -0.759199619293213 1.000000000000000
10.670841217041016 -14.761791229248047 -0.213007703423500 0.000000000000000
10.671010017395020 -24.128231048583984 0.958184838294983 0.000000000000000
10.687378883361816 -13.594901084899902 1.964152574539185 0.000000000000000
10.688077926635742 -8.976630210876465 -0.538636982440948 0.000000000000000
10.689870834350586 -21.184392929077148 0.588205158710480 0.000000000000000
10.690818786621094 -14.616784095764160 1.460214853286743 0.000000000000000
10.692622184753418 -15.489426612854004 1.263331055641174 0.000000000000000
10.692666053771973 -19.259946823120117 1.818858623504639 0.000000000000000
10.697222709655762 -21.528650283813477 -1.390337705612183 1.000000000000000
10.702000617980957 -16.087081909179688 2.571197271347046 0.000000000000000
10.703290939331055 -18.916460037231445 0.246581852436066 0.000000000000000
10.708481788635254 -12.218423843383789 -0.189995020627975 0.000000000000000
10.709024429321289 -15.662994384765625 0.616171717643738 0.000000000000000
10.718215942382812 -18.721876144409180 1.364810228347778 0.000000000000000
10.720505714416504 -27.659151077270508 1.191432714462280 0.000000000000000
10.720577239990234 -17.675312042236328 1.068922519683838 0.000000000000000
10.721832275390625 -22.033742904663086 -0.051321018487215 0.000000000000000
10.726366043090820 -17.052312850952148 0.654211819171906 0.000000000000000
10.727073669433594 -10.880946159362793 0.996119201183319 0.000000000000000
10.728836059570312 -11.351773262023926 0.117225691676140 0.000000000000000
10.733309745788574 -31.554166793823242 2.904248714447021 0.000000000000000
10.735703468322754 -24.882587432861328 2.237531661987305 0.000000000000000
10.737689971923828 -8.773685455322266 -0.775249063968658 0.000000000000000
10.740202903747559 -15.291974067687988 0.212004125118256 0.000000000000000
10.741698265075684 -15.381266593933105 1.440270900726318 0.000000000000000
10.743597984313965 -16.989437103271484 1.910760521888733 0.000000000000000
10.744887351989746 -17.402891159057617 0.546289503574371 0.000000000000000
10.748054504394531 -18.458114624023438 0.734688520431519 0.000000000000000
10.749710083007812 -24.060562133789062 1.007763981819153 0.000000000000000
10.752054214477539 -8.737646102905273 -0.188623785972595 0.000000000000000
10.755422592163086 -17.182893753051758 0.152138233184814 0.000000000000000
10.757835388183594 -9.133318901062012 -0.002463008742779 0.000000000000000
10.759182929992676 -12.402793884277344 1.038761019706726 0.000000000000000
