# This PCD file was generated using the MATLAB® pcwrite function
# from Computer Vision Toolbox®.
# .PCD v.7 - Point Cloud Data file format
VERSION .7
FIELDS x y z intensity
SIZE 8 8 8 8
TYPE F F F F
COUNT 1 1 1 1
WIDTH 628
HEIGHT 1
VIEWPOINT 0 0 0 1 0 0 0
POINTS 628
DATA ascii
-20.961683273315430 -14.200663566589355 -0.928404986858368 0.000000000000000
-20.954221725463867 -14.592869758605957 3.398011684417725 0.000000000000000
-20.948465347290039 -29.631517410278320 -0.494048357009888 0.000000000000000
-20.947971343994141 -21.047657012939453 2.587573051452637 0.000000000000000
-20.947162628173828 -14.178030967712402 -0.295797258615494 0.000000000000000
-20.946477890014648 -28.568441390991211 -0.482286602258682 0.000000000000000
-20.944093704223633 9.455741882324219 -0.445244729518890 0.000000000000000
-20.942136764526367 -31.003629684448242 1.286908030509949 1.000000000000000
-20.940196990966797 -14.214386940002441 -1.171403288841248 0.000000000000000
-20.917665481567383 -20.792449951171875 1.979647278785706 0.000000000000000
-20.911281585693359 -31.239265441894531 2.450744628906250 0.000000000000000
-20.902240753173828 -28.684112548828125 -0.006194522604346 1.000000000000000
-20.893560409545898 -31.730119705200195 -0.225447729229927 1.000000000000000
-20.890020370483398 -31.484916687011719 3.292454004287720 0.000000000000000
-20.885049819946289 -31.024059295654297 1.574017047882080 0.000000000000000
-20.871862411499023 -32.431522369384766 -0.228865772485733 1.000000000000000
-20.871574401855469 -14.078580856323242 0.043940387666225 0.000000000000000
-20.858806610107422 -14.081102371215820 -0.680993318557739 1.000000000000000
-20.848529815673828 -31.259872436523438 1.148003935813904 1.000000000000000
-20.848529815673828 -14.304170608520508 1.745844602584839 0.000000000000000
-20.834346771240234 -15.355354309082031 2.756807327270508 0.000000000000000
-20.831937789916992 -14.012207031250000 -1.306962370872498 0.000000000000000
-20.831464767456055 -29.598434448242188 -1.257603287696838 1.000000000000000
-20.817270278930664 9.750640869140625 -0.445399701595306 0.000000000000000
-20.816633224487305 -14.001911163330078 -0.148874312639236 0.000000000000000
-20.809528350830078 -14.056298255920410 -0.631268024444580 0.000000000000000
-20.806747436523438 -32.350189208984375 -0.154403984546661 0.000000000000000
-20.803853988647461 -24.217470169067383 1.282291054725647 0.000000000000000
-20.798105239868164 -32.434978485107422 0.659096419811249 1.000000000000000
-20.797960281372070 -31.604143142700195 2.174843311309814 0.000000000000000
-20.789743423461914 -28.453483581542969 -0.209117144346237 1.000000000000000
-20.774209976196289 -31.148437500000000 1.719808936119080 0.000000000000000
-20.765783309936523 -2.989438533782959 0.076895549893379 0.000000000000000
-20.758893966674805 -28.965793609619141 2.873491764068604 1.000000000000000
-20.751985549926758 -28.344654083251953 -1.018065929412842 0.000000000000000
-20.745298385620117 -31.488195419311523 0.138206735253334 0.000000000000000
-20.743000030517578 -30.708818435668945 1.844861745834351 0.000000000000000
-20.737382888793945 -20.659353256225586 2.653655290603638 0.000000000000000
-20.732765197753906 -14.179550170898438 2.520380020141602 1.000000000000000
-20.729831695556641 -30.921461105346680 3.001767158508301 1.000000000000000
-20.727888107299805 -31.738374710083008 2.763789653778076 1.000000000000000
-20.727823257446289 -30.732580184936523 2.416656017303467 1.000000000000000
-20.721538543701172 -31.355554580688477 0.065596424043179 1.000000000000000
-20.720935821533203 -28.268074035644531 -1.150451421737671 1.000000000000000
-20.720352172851562 -21.981758117675781 2.738523006439209 0.000000000000000
-20.697889328002930 -21.056449890136719 1.242662668228149 0.000000000000000
-20.685880661010742 -20.187915802001953 1.661549091339111 0.000000000000000
-20.664813995361328 -30.375419616699219 1.263669729232788 0.000000000000000
-20.633953094482422 -31.247915267944336 1.288008093833923 0.000000000000000
-20.627136230468750 -30.706836700439453 0.561739146709442 1.000000000000000
-20.619335174560547 -16.337411880493164 2.802139759063721 0.000000000000000
-20.609588623046875 -30.158220291137695 -0.146632403135300 0.000000000000000
-20.589569091796875 -22.613368988037109 2.772470235824585 0.000000000000000
-20.589378356933594 -13.956840515136719 2.254956960678101 0.000000000000000
-20.574739456176758 -21.675191879272461 0.798234164714813 0.000000000000000
-20.573795318603516 -31.319423675537109 1.721277117729187 0.000000000000000
-20.539632797241211 -30.576572418212891 1.125405311584473 0.000000000000000
-20.534711837768555 -19.889791488647461 2.029159307479858 0.000000000000000
-20.515762329101562 -30.541038513183594 -0.006421416066587 1.000000000000000
-20.467386245727539 -30.688392639160156 -0.573036313056946 0.000000000000000
-20.466451644897461 -29.567239761352539 -0.558621823787689 1.000000000000000
-20.444932937622070 -19.813909530639648 1.198257803916931 0.000000000000000
-20.438232421875000 5.066279888153076 -0.367547690868378 1.000000000000000
-20.429491043090820 5.215767860412598 -0.368036359548569 1.000000000000000
-20.426036834716797 -19.774860382080078 -0.332467883825302 0.000000000000000
-20.419605255126953 -19.464366912841797 1.458691954612732 0.000000000000000
-20.418560028076172 -31.217096328735352 1.856993913650513 0.000000000000000
-20.410255432128906 -21.501911163330078 2.687602281570435 0.000000000000000
-20.405082702636719 -28.626943588256836 1.614821553230286 1.000000000000000
-20.399747848510742 -30.498113632202148 0.134482905268669 0.000000000000000
-20.398551940917969 -15.255072593688965 2.713169336318970 0.000000000000000
-20.392192840576172 -30.857192993164062 0.632688701152802 0.000000000000000
-20.386962890625000 -31.347637176513672 1.286220431327820 0.000000000000000
-20.380926132202148 -30.376949310302734 -0.498023450374603 0.000000000000000
-20.380332946777344 -31.540609359741211 1.219490408897400 0.000000000000000
-20.378240585327148 -27.997865676879883 -0.471450537443161 0.000000000000000
-20.375802993774414 -13.602333068847656 0.230903655290604 0.000000000000000
-20.371675491333008 -19.616439819335938 2.116524934768677 0.000000000000000
-20.366950988769531 -30.843568801879883 0.703240156173706 0.000000000000000
-20.356538772583008 4.372239589691162 -0.683420956134796 1.000000000000000
-20.322504043579102 -31.173477172851562 1.709346890449524 1.000000000000000
-20.315942764282227 -13.611634254455566 -0.285974770784378 0.000000000000000
-20.307315826416016 -28.073062896728516 -0.006047217175364 1.000000000000000
-20.303150177001953 -30.033912658691406 -0.493558287620544 0.000000000000000
-20.302043914794922 -13.484051704406738 0.042537145316601 0.000000000000000
-20.268615722656250 9.496236801147461 -0.476672023534775 0.000000000000000
-20.264509201049805 -13.585379600524902 2.014371156692505 0.000000000000000
-20.258979797363281 -15.937093734741211 2.028638601303101 0.000000000000000
-20.237197875976562 -19.888427734375000 0.321908622980118 0.000000000000000
-20.230161666870117 -21.418241500854492 2.034338712692261 0.000000000000000
-20.226175308227539 4.457374095916748 -0.719642400741577 1.000000000000000
-20.221448898315430 -27.879478454589844 -1.262888669967651 1.000000000000000
-20.213546752929688 -27.868583679199219 -0.204298660159111 1.000000000000000
-20.202617645263672 -13.489775657653809 2.202230453491211 1.000000000000000
-20.180521011352539 -13.353148460388184 -0.282981246709824 0.000000000000000
-20.162137985229492 -19.656183242797852 -0.329287260770798 0.000000000000000
-20.159301757812500 -17.531625747680664 0.918945014476776 0.000000000000000
-20.146833419799805 -18.414653778076172 1.832044363021851 0.000000000000000
-20.116941452026367 -19.506938934326172 2.097121000289917 0.000000000000000
-20.108346939086914 -23.363260269165039 1.771967053413391 0.000000000000000
-20.107669830322266 -27.819553375244141 -0.994775295257568 0.000000000000000
-20.101861953735352 -19.755426406860352 2.555063962936401 0.000000000000000
-20.091541290283203 -30.426490783691406 -0.426389575004578 0.000000000000000
-20.063014984130859 -19.590984344482422 2.665526151657104 0.000000000000000
-20.061298370361328 5.695306777954102 -0.283915817737579 1.000000000000000
-19.995817184448242 -23.069150924682617 1.284880876541138 0.000000000000000
-19.994577407836914 -19.649990081787109 0.748785018920898 0.000000000000000
-19.988786697387695 -21.069679260253906 2.173542737960815 0.000000000000000
-19.988571166992188 -19.774816513061523 2.050009250640869 0.000000000000000
-19.927385330200195 -27.547842025756836 -1.050666332244873 1.000000000000000
-19.927322387695312 -21.728574752807617 0.277876049280167 0.000000000000000
-19.926464080810547 -27.488927841186523 -1.179680109024048 1.000000000000000
-19.922212600708008 -20.215047836303711 1.467573881149292 0.000000000000000
-19.906536102294922 5.667141437530518 -0.321529090404510 1.000000000000000
-19.896671295166016 -13.399269104003906 2.280194282531738 0.000000000000000
-19.889272689819336 -30.024358749389648 -0.628635644912720 0.000000000000000
-19.849811553955078 4.790438652038574 -0.709502696990967 0.000000000000000
-19.838312149047852 -20.341852188110352 1.688096761703491 0.000000000000000
-19.826805114746094 -21.480083465576172 -0.117344468832016 0.000000000000000
-19.796234130859375 -20.855049133300781 1.210199952125549 0.000000000000000
-19.770584106445312 -27.532939910888672 -0.005915967747569 1.000000000000000
-19.755313873291016 -12.814060211181641 -1.452586650848389 0.000000000000000
-19.746585845947266 -19.406270980834961 1.591533660888672 0.000000000000000
-19.740367889404297 -13.189093589782715 2.256726264953613 0.000000000000000
-19.732051849365234 -13.194006919860840 2.381800889968872 1.000000000000000
-19.697784423828125 4.972600936889648 -0.705891251564026 1.000000000000000
-19.670389175415039 -17.853546142578125 1.373591184616089 0.000000000000000
-19.658056259155273 -27.302743911743164 -0.199646338820457 1.000000000000000
-19.654541015625000 -27.297863006591797 -1.233427166938782 1.000000000000000
-19.629863739013672 -12.640401840209961 -1.440272331237793 0.000000000000000
-19.601272583007812 -16.372936248779297 0.093608781695366 0.000000000000000
-19.592782974243164 -27.157073974609375 -1.485500693321228 1.000000000000000
-19.572387695312500 -12.988599777221680 2.357040405273438 0.000000000000000
-19.556903839111328 -19.479238510131836 0.260157734155655 0.000000000000000
-19.471397399902344 -20.801771163940430 1.637904524803162 0.000000000000000
-19.438701629638672 -19.793397903442383 2.076224565505981 0.000000000000000
-19.413446426391602 -12.400620460510254 -0.004020540509373 0.000000000000000
-19.394773483276367 -12.318750381469727 2.609690904617310 0.000000000000000
-19.372745513916016 -26.922330856323242 -1.152455568313599 1.000000000000000
-19.357860565185547 -12.546180725097656 2.192756652832031 0.000000000000000
-19.336732864379883 -26.928749084472656 -1.024473786354065 1.000000000000000
-19.336185455322266 -20.217205047607422 0.693475365638733 0.000000000000000
-19.329998016357422 -17.048889160156250 2.927494525909424 0.000000000000000
-19.326202392578125 -12.733123779296875 2.322295665740967 0.000000000000000
-19.313955307006836 -12.232433319091797 -1.454366087913513 0.000000000000000
-19.259340286254883 -12.187490463256836 -0.135249659419060 0.000000000000000
-19.235897064208984 -26.810041427612305 -0.449233859777451 0.000000000000000
-19.235126495361328 2.575397014617920 -0.450567990541458 1.000000000000000
-19.219528198242188 -32.179744720458984 3.022342205047607 0.000000000000000
-19.210910797119141 -19.539609909057617 1.522400498390198 0.000000000000000
-19.195758819580078 -19.546020507812500 1.627604246139526 0.000000000000000
-19.160503387451172 -12.041744232177734 -1.439637064933777 0.000000000000000
-19.110168457031250 -21.454816818237305 2.150258064270020 0.000000000000000
-19.102968215942383 -32.355461120605469 3.406270503997803 1.000000000000000
-19.075828552246094 -26.626182556152344 -0.949236989021301 0.000000000000000
-19.047782897949219 -26.650848388671875 -1.201180815696716 1.000000000000000
-19.035879135131836 -26.706045150756836 -0.005723982118070 1.000000000000000
-19.006116867065430 -12.328102111816406 2.273174285888672 0.000000000000000
-18.975471496582031 -11.833261489868164 -1.422622442245483 0.000000000000000
-18.968984603881836 -26.612197875976562 0.998487353324890 1.000000000000000
-18.968172073364258 -26.632686614990234 -0.445149928331375 1.000000000000000
-18.966064453125000 -15.864843368530273 2.241594552993774 0.000000000000000
-18.908424377441406 -32.282829284667969 2.727722406387329 0.000000000000000
-18.789699554443359 -13.175271034240723 2.809608936309814 0.000000000000000
-18.785360336303711 -15.602555274963379 2.213786840438843 0.000000000000000
-18.775447845458984 -26.677135467529297 -0.632067739963531 1.000000000000000
-18.752950668334961 -11.978719711303711 2.232838392257690 0.000000000000000
-18.731622695922852 -16.405225753784180 2.828181028366089 0.000000000000000
-18.714031219482422 -19.710828781127930 1.929188132286072 0.000000000000000
-18.667650222778320 -26.705781936645508 -0.193356215953827 1.000000000000000
-18.644340515136719 -18.323020935058594 1.100197196006775 0.000000000000000
-18.639541625976562 -18.190837860107422 1.096160292625427 0.000000000000000
-18.635971069335938 -16.602884292602539 2.060780525207520 0.000000000000000
-18.593580245971680 -13.405676841735840 2.441598415374756 0.000000000000000
-18.592081069946289 -18.033344268798828 3.838600158691406 0.000000000000000
-18.577922821044922 -20.268560409545898 1.580514669418335 0.000000000000000
-18.575084686279297 -26.803838729858398 -0.569227695465088 0.000000000000000
-18.563690185546875 -11.739113807678223 2.689058065414429 0.000000000000000
-18.561656951904297 -11.880718231201172 2.503154516220093 0.000000000000000
-18.490003585815430 -26.655223846435547 -1.127175927162170 0.000000000000000
-18.481832504272461 -19.872117996215820 1.507755637168884 0.000000000000000
-18.476345062255859 1.578783392906189 -0.110041663050652 1.000000000000000
-18.464813232421875 -19.756801605224609 1.086126923561096 0.000000000000000
-18.463684082031250 -26.755643844604492 -1.442070245742798 0.000000000000000
-18.460447311401367 -11.715812683105469 2.328902482986450 1.000000000000000
-18.459657669067383 1.547506451606750 0.530376493930817 1.000000000000000
-18.458763122558594 -17.081640243530273 1.591099977493286 0.000000000000000
-18.438650131225586 1.570372223854065 0.494277179241180 1.000000000000000
-18.422189712524414 1.456972241401672 0.103211261332035 1.000000000000000
-18.420675277709961 -16.556388854980469 2.485235929489136 0.000000000000000
-18.397697448730469 -26.720827102661133 -0.628580808639526 0.000000000000000
-18.395734786987305 -19.821132659912109 1.086126923561096 0.000000000000000
-18.393362045288086 -15.871685981750488 2.587763786315918 1.000000000000000
-18.387878417968750 -14.437648773193359 2.222281217575073 0.000000000000000
-18.387487411499023 2.269428968429565 -0.430142492055893 1.000000000000000
-18.373794555664062 -21.068208694458008 1.660815834999084 0.000000000000000
-18.339410781860352 1.386025547981262 0.102719776332378 1.000000000000000
-18.333227157592773 -26.755970001220703 -0.939967095851898 0.000000000000000
-18.330366134643555 2.471519470214844 -0.536031544208527 1.000000000000000
-18.298540115356445 -1.378446102142334 0.243423014879227 0.000000000000000
-18.245458602905273 1.949234604835510 -0.496517062187195 1.000000000000000
-18.233236312866211 -13.242845535278320 1.425676226615906 0.000000000000000
-18.228088378906250 -18.155700683593750 1.826101779937744 0.000000000000000
-18.205524444580078 1.922472000122070 -0.214083492755890 1.000000000000000
-18.195110321044922 -12.597954750061035 2.709474086761475 0.000000000000000
-18.184898376464844 -13.856187820434570 3.388242006301880 0.000000000000000
-18.161020278930664 -26.801538467407227 -0.565108895301819 1.000000000000000
-18.157609939575195 1.928311467170715 0.101982548832893 1.000000000000000
-18.136594772338867 1.853764414787292 -0.423272073268890 1.000000000000000
-18.074485778808594 1.911186337471008 0.415627926588058 1.000000000000000
-18.064722061157227 -15.833418846130371 1.288342595100403 0.000000000000000
-17.991197586059570 1.786882042884827 0.100977241992950 1.000000000000000
-17.973648071289062 -11.144570350646973 2.252642393112183 0.000000000000000
-17.972101211547852 -34.518215179443359 1.563053131103516 0.000000000000000
-17.966222763061523 -15.636528968811035 1.277417182922363 0.000000000000000
-17.957742691040039 -15.452647209167480 0.997090458869934 0.000000000000000
-17.941240310668945 -21.033239364624023 1.110366463661194 0.000000000000000
-17.910034179687500 -22.480546951293945 0.270901799201965 0.000000000000000
-17.907661437988281 -26.782499313354492 -0.376762628555298 0.000000000000000
-17.892366409301758 -20.661338806152344 1.623808622360229 0.000000000000000
-17.769794464111328 -14.090227127075195 2.575834274291992 0.000000000000000
-17.740953445434570 -19.521680831909180 1.059479355812073 0.000000000000000
-17.734754562377930 -20.316839218139648 1.966240406036377 0.000000000000000
-17.714036941528320 -28.175199508666992 1.913146018981934 0.000000000000000
-17.708520889282227 -11.206117630004883 -1.413963317871094 0.000000000000000
-17.705244064331055 -19.716199874877930 1.472252845764160 0.000000000000000
-17.633735656738281 -16.760719299316406 0.977128922939301 0.000000000000000
-17.620239257812500 -19.662919998168945 1.060442566871643 0.000000000000000
-17.579477310180664 -28.265701293945312 1.080962061882019 0.000000000000000
-17.563247680664062 -13.208926200866699 3.256887435913086 0.000000000000000
-17.554119110107422 -15.743772506713867 2.886897563934326 0.000000000000000
-17.547353744506836 -32.834316253662109 3.735641479492188 0.000000000000000
-17.499261856079102 -12.297773361206055 2.618574857711792 0.000000000000000
-17.457443237304688 -15.844996452331543 2.886411428451538 0.000000000000000
-17.421007156372070 -2.032941341400146 0.165308162570000 0.000000000000000
-17.392238616943359 -20.629093170166016 1.499101877212524 0.000000000000000
-17.391050338745117 -12.460877418518066 2.430023670196533 0.000000000000000
-17.375585556030273 -17.796722412109375 0.616554737091064 0.000000000000000
-17.374309539794922 -14.226785659790039 2.035744905471802 0.000000000000000
-17.372272491455078 -0.501639187335968 0.130434229969978 0.000000000000000
-17.362613677978516 -14.284151077270508 -0.867649853229523 0.000000000000000
-17.330791473388672 -14.249866485595703 -0.564019918441772 0.000000000000000
-17.326839447021484 -14.804793357849121 1.310094118118286 0.000000000000000
-17.326313018798828 -14.596314430236816 2.053802013397217 0.000000000000000
-17.317785263061523 -15.376537322998047 2.630456686019897 0.000000000000000
-17.312602996826172 -14.277501106262207 1.636109948158264 0.000000000000000
-17.301208496093750 -15.259513854980469 1.860150337219238 0.000000000000000
-17.299709320068359 -14.804617881774902 0.914523363113403 0.000000000000000
-17.278694152832031 -17.950204849243164 0.665479898452759 0.000000000000000
-17.277357101440430 -17.699829101562500 0.280615031719208 0.000000000000000
-17.276226043701172 -0.000304192653857 0.826814532279968 1.000000000000000
-17.269472122192383 -0.000304073735606 1.092555403709412 0.000000000000000
-17.261819839477539 -15.073307991027832 2.178372859954834 0.000000000000000
-17.257226943969727 -14.189378738403320 -0.905145645141602 0.000000000000000
-17.235790252685547 0.018651500344276 1.289916038513184 1.000000000000000
-17.230384826660156 -16.424339294433594 0.864544034004211 0.000000000000000
-17.224658966064453 -16.361598968505859 2.258240222930908 0.000000000000000
-17.212390899658203 -14.382609367370605 -0.262307256460190 0.000000000000000
-17.192205429077148 -17.860355377197266 0.281250327825546 0.000000000000000
-17.174295425415039 -27.411106109619141 1.050452113151550 0.000000000000000
-17.162038803100586 -18.076169967651367 1.384827494621277 0.000000000000000
-17.143358230590820 -14.297507286071777 -0.218187838792801 0.000000000000000
-17.142845153808594 -14.864266395568848 2.156797409057617 0.000000000000000
-17.136718750000000 -14.268158912658691 1.754973292350769 0.000000000000000
-17.118927001953125 3.652483701705933 -0.641851186752319 1.000000000000000
-17.078084945678711 -27.459522247314453 3.444420099258423 0.000000000000000
-17.063955307006836 0.146528556942940 2.089221477508545 0.000000000000000
-17.029277801513672 -15.936832427978516 0.981616079807281 0.000000000000000
-17.017740249633789 0.441463291645050 1.175469160079956 1.000000000000000
-17.007528305053711 -14.293279647827148 1.191513299942017 0.000000000000000
-16.946659088134766 -16.186662673950195 0.220875829458237 0.000000000000000
-16.943113327026367 0.597886025905609 -1.307489514350891 1.000000000000000
-16.931482315063477 -19.667995452880859 1.441853642463684 0.000000000000000
-16.917806625366211 -14.783840179443359 2.254404306411743 0.000000000000000
-16.913463592529297 -14.812874794006348 1.812891125679016 0.000000000000000
-16.908555984497070 -12.624382972717285 3.127292156219482 0.000000000000000
-16.893650054931641 -17.322446823120117 1.810837984085083 0.000000000000000
-16.888084411621094 -28.018918991088867 3.484668731689453 0.000000000000000
-16.881925582885742 0.027106916531920 2.066861152648926 0.000000000000000
-16.881416320800781 -14.121065139770508 3.762031078338623 0.000000000000000
-16.880464553833008 -12.985162734985352 2.136991500854492 0.000000000000000
-16.878524780273438 -16.234630584716797 0.220725044608116 0.000000000000000
-16.853700637817383 0.674558222293854 -0.164862573146820 1.000000000000000
-16.851749420166016 1.299925446510315 -1.303490996360779 1.000000000000000
-16.832382202148438 0.713136196136475 -0.132322534918785 0.000000000000000
-16.828426361083984 -18.478643417358398 1.773992180824280 0.000000000000000
-16.818889617919922 0.539133965969086 0.126291543245316 1.000000000000000
-16.806512832641602 0.550482153892517 0.126201480627060 1.000000000000000
-16.800764083862305 0.609005749225616 2.237200260162354 0.000000000000000
-16.798467636108398 0.194097489118576 -1.328057050704956 1.000000000000000
-16.794935226440430 4.061877727508545 -0.666817843914032 1.000000000000000
-16.792444229125977 1.062667965888977 -1.297647118568420 1.000000000000000
-16.778312683105469 -15.434940338134766 1.838288903236389 0.000000000000000
-16.775377273559570 -10.367965698242188 2.414416551589966 0.000000000000000
-16.770601272583008 -12.105127334594727 2.349218606948853 0.000000000000000
-16.741868972778320 0.251894503831863 -1.323643922805786 1.000000000000000
-16.735132217407227 3.985636949539185 -0.663887083530426 1.000000000000000
-16.719633102416992 -18.363046646118164 0.281749457120895 0.000000000000000
-16.713474273681641 -16.616907119750977 3.136301517486572 0.000000000000000
-16.695154190063477 -12.506857872009277 2.553924798965454 0.000000000000000
-16.684759140014648 0.897188723087311 -0.323743879795074 1.000000000000000
-16.673366546630859 -14.652036666870117 1.832682728767395 0.000000000000000
-16.666927337646484 -18.183658599853516 0.279843598604202 0.000000000000000
-16.657852172851562 1.528293251991272 -1.322382926940918 0.000000000000000
-16.650405883789062 -34.516788482666016 1.686617016792297 0.000000000000000
-16.647586822509766 -0.113612502813339 0.029056226834655 0.000000000000000
-16.622228622436523 -24.013610839843750 2.930525779724121 0.000000000000000
-16.621349334716797 -16.756502151489258 1.538676261901855 0.000000000000000
-16.605018615722656 -15.124243736267090 1.334393620491028 0.000000000000000
-16.603008270263672 0.126342788338661 -0.130406171083450 0.000000000000000
-16.583641052246094 1.463131666183472 -1.316078424453735 1.000000000000000
-16.580150604248047 -15.343181610107422 1.081130743026733 0.000000000000000
-16.564760208129883 0.082686409354210 1.399734020233154 0.000000000000000
-16.557384490966797 -34.323955535888672 2.264080286026001 0.000000000000000
-16.556531906127930 -14.673246383666992 1.698380708694458 0.000000000000000
-16.555669784545898 -4.944270610809326 3.593869924545288 0.000000000000000
-16.542707443237305 -17.065980911254883 -0.095410622656345 0.000000000000000
-16.520750045776367 -16.321268081665039 1.156121373176575 0.000000000000000
-16.518712997436523 -27.190963745117188 0.544229984283447 0.000000000000000
-16.513172149658203 -18.801849365234375 1.486692309379578 0.000000000000000
-16.507684707641602 0.029963565990329 -0.097959868609905 1.000000000000000
-16.501701354980469 -26.740453720092773 3.346976757049561 0.000000000000000
-16.494064331054688 0.993218064308167 -0.892012238502502 0.000000000000000
-16.459461212158203 -18.361125946044922 2.148671865463257 0.000000000000000
-16.453546524047852 -16.244667053222656 1.953767418861389 0.000000000000000
-16.408786773681641 -14.984328269958496 2.523920059204102 0.000000000000000
-16.403118133544922 1.012452244758606 -0.918821990489960 1.000000000000000
-16.398036956787109 -9.061915397644043 2.776622533798218 0.000000000000000
-16.376665115356445 0.310447156429291 2.179687261581421 0.000000000000000
-16.374015808105469 -17.094964981079102 1.634524822235107 0.000000000000000
-16.354310989379883 0.367703318595886 -1.324790239334106 1.000000000000000
-16.346361160278320 -12.951786994934082 1.641364336013794 0.000000000000000
-16.344404220581055 -25.396579742431641 1.677946686744690 0.000000000000000
-16.340496063232422 -16.450380325317383 1.511613607406616 0.000000000000000
-16.323741912841797 0.416618525981903 -1.290860176086426 0.000000000000000
-16.313220977783203 -14.591853141784668 0.752839148044586 0.000000000000000
-16.312690734863281 -15.472589492797852 1.595856547355652 0.000000000000000
-16.302322387695312 0.252110809087753 2.169661998748779 0.000000000000000
-16.261169433593750 -15.450704574584961 1.954569101333618 0.000000000000000
-16.248189926147461 -18.093654632568359 3.604038715362549 0.000000000000000
-16.236713409423828 -14.534644126892090 2.899918079376221 0.000000000000000
-16.229164123535156 -17.037534713745117 1.533992409706116 1.000000000000000
-16.209703445434570 -11.937293052673340 2.019978046417236 0.000000000000000
-16.190431594848633 -15.311600685119629 0.423983335494995 0.000000000000000
-16.171676635742188 -16.567110061645508 0.974383413791656 0.000000000000000
-16.143508911132812 -15.573819160461426 1.419109702110291 0.000000000000000
-16.142669677734375 -11.819839477539062 2.272476196289062 0.000000000000000
-16.122619628906250 -16.058593750000000 -0.135036021471024 0.000000000000000
-16.101411819458008 -11.707812309265137 2.261190652847290 0.000000000000000
-16.096336364746094 -15.329413414001465 0.422918051481247 0.000000000000000
-16.041393280029297 -11.641504287719727 1.988827705383301 0.000000000000000
-16.041061401367188 -18.247594833374023 1.396637797355652 0.000000000000000
-16.034513473510742 -23.625989913940430 -1.486422777175903 1.000000000000000
-16.032047271728516 0.525115251541138 -0.865922510623932 1.000000000000000
-16.022167205810547 -15.847511291503906 -0.133730530738831 0.000000000000000
-16.017328262329102 -13.167090415954590 2.355087280273438 0.000000000000000
-16.012588500976562 -18.104034423828125 1.435926079750061 0.000000000000000
-16.006994247436523 -11.810860633850098 -0.538281202316284 0.000000000000000
-16.001802444458008 -11.437592506408691 2.915014028549194 0.000000000000000
-16.000926971435547 -26.404029846191406 2.608840227127075 0.000000000000000
-15.994081497192383 -16.013082504272461 3.011777877807617 0.000000000000000
-15.990618705749512 -15.897125244140625 1.469978451728821 0.000000000000000
-15.950812339782715 -16.541795730590820 1.143989324569702 0.000000000000000
-15.943572044372559 -16.142944335937500 0.562432706356049 0.000000000000000
-15.938094139099121 -11.472101211547852 2.910322666168213 0.000000000000000
-15.934391975402832 -0.469025552272797 -1.321817874908447 1.000000000000000
-15.925538063049316 -15.773944854736328 3.321978330612183 0.000000000000000
-15.925229072570801 -13.284417152404785 0.474245667457581 0.000000000000000
-15.922507286071777 -15.918068885803223 0.774427413940430 0.000000000000000
-15.919732093811035 -10.657735824584961 0.622143924236298 0.000000000000000
-15.911876678466797 -15.628917694091797 -0.132353827357292 0.000000000000000
-15.895240783691406 -15.943033218383789 0.558071255683899 0.000000000000000
-15.878808975219727 -0.509555876255035 -0.399367541074753 1.000000000000000
-15.876139640808105 -20.958549499511719 3.896654129028320 0.000000000000000
-15.863560676574707 -9.961224555969238 -0.398915797472000 0.000000000000000
-15.853421211242676 2.348381757736206 -1.359860777854919 1.000000000000000
-15.843144416809082 -18.278217315673828 2.192840814590454 0.000000000000000
-15.835913658142090 -14.103334426879883 2.596214771270752 0.000000000000000
-15.833637237548828 -0.533002495765686 0.210156619548798 0.000000000000000
-15.830819129943848 -0.300096750259399 -1.312893390655518 1.000000000000000
-15.817270278930664 -16.308483123779297 0.214127793908119 0.000000000000000
-15.816147804260254 -10.668524742126465 0.619547307491302 0.000000000000000
-15.769978523254395 -27.582792282104492 0.848644435405731 0.000000000000000
-15.742529869079590 -35.864185333251953 1.874482512474060 0.000000000000000
-15.740386009216309 -13.988729476928711 0.764805674552917 0.000000000000000
-15.740071296691895 -15.845918655395508 0.768239736557007 0.000000000000000
-15.734787940979004 -18.531522750854492 1.350656151771545 0.000000000000000
-15.676403999328613 -11.773600578308105 1.618738055229187 0.000000000000000
-15.675539970397949 -23.900987625122070 1.808297872543335 0.000000000000000
-15.674201965332031 -15.284063339233398 2.680308818817139 0.000000000000000
-15.672128677368164 -15.294857978820801 0.248442322015762 0.000000000000000
-15.670324325561523 -24.542621612548828 2.123016119003296 0.000000000000000
-15.657077789306641 -10.607015609741211 -0.402748256921768 0.000000000000000
-15.649415969848633 -12.310895919799805 2.120881557464600 0.000000000000000
-15.633109092712402 2.988394260406494 -1.381289005279541 1.000000000000000
-15.603477478027344 -13.034509658813477 0.152588531374931 0.000000000000000
-15.582610130310059 -31.426767349243164 1.948876619338989 0.000000000000000
-15.581029891967773 -16.035762786865234 1.543871045112610 0.000000000000000
-15.571434974670410 2.133570671081543 -1.363996982574463 1.000000000000000
-15.568449020385742 -0.026085807010531 -0.331549793481827 1.000000000000000
-15.551216125488281 -12.688684463500977 2.279699087142944 0.000000000000000
-15.549748420715332 -9.827104568481445 -0.215112537145615 0.000000000000000
-15.540863037109375 -14.888061523437500 1.693775177001953 0.000000000000000
-15.519036293029785 -14.457056999206543 1.341827630996704 0.000000000000000
-15.512131690979004 -24.032335281372070 2.195923328399658 0.000000000000000
-15.507364273071289 -15.997888565063477 0.937715828418732 0.000000000000000
-15.502777099609375 -14.021599769592285 1.241875529289246 0.000000000000000
-15.499769210815430 -14.071103096008301 1.445501923561096 0.000000000000000
-15.497998237609863 -23.550432205200195 2.555786132812500 0.000000000000000
-15.497612953186035 -11.347521781921387 0.070400841534138 0.000000000000000
-15.477758407592773 -14.439302444458008 1.706798791885376 0.000000000000000
-15.476312637329102 0.095079764723778 0.324188679456711 0.000000000000000
-15.454202651977539 -11.482325553894043 -0.520969629287720 0.000000000000000
-15.449373245239258 -10.351043701171875 2.112220287322998 0.000000000000000
-15.448503494262695 -13.330559730529785 1.605900883674622 0.000000000000000
-15.447109222412109 -23.638065338134766 -1.469994783401489 1.000000000000000
-15.426210403442383 -28.839832305908203 1.943114042282104 0.000000000000000
-15.422821044921875 2.020596981048584 -1.289755821228027 1.000000000000000
-15.416481018066406 0.027982890605927 -0.328313529491425 1.000000000000000
-15.406031608581543 -9.499364852905273 1.214844465255737 0.000000000000000
-15.383511543273926 -24.658973693847656 1.670731544494629 0.000000000000000
-15.379881858825684 0.177706480026245 -0.978465616703033 0.000000000000000
-15.378225326538086 -9.627305030822754 1.217791080474854 0.000000000000000
-15.373266220092773 -18.786478042602539 3.597588062286377 0.000000000000000
-15.343244552612305 0.230851098895073 -0.976180016994476 0.000000000000000
-15.340563774108887 -15.936751365661621 0.930987775325775 0.000000000000000
-15.328900337219238 -24.060625076293945 2.862633943557739 0.000000000000000
-15.314588546752930 -22.242918014526367 2.448166608810425 0.000000000000000
-15.297883987426758 -14.251037597656250 1.645444273948669 0.000000000000000
-15.269496917724609 -23.602151870727539 2.820700883865356 0.000000000000000
-15.257196426391602 -16.645639419555664 1.646290063858032 0.000000000000000
-15.253372192382812 -0.165596082806587 -0.647344708442688 1.000000000000000
-15.241803169250488 -13.689141273498535 1.533211946487427 0.000000000000000
-15.241082191467285 0.253262281417847 -0.383183747529984 0.000000000000000
-15.238541603088379 -27.150323867797852 0.771783769130707 1.000000000000000
-15.236778259277344 -27.163846969604492 -1.381622076034546 1.000000000000000
-15.236582756042480 -17.944765090942383 1.670905709266663 0.000000000000000
-15.231968879699707 -10.282607078552246 2.087391614913940 0.000000000000000
-15.231281280517578 -15.491888046264648 1.542047739028931 0.000000000000000
-15.230325698852539 17.467458724975586 3.434567928314209 0.000000000000000
-15.211182594299316 -24.567584991455078 1.605388045310974 0.000000000000000
-15.207772254943848 -15.761312484741211 1.850707173347473 0.000000000000000
-15.207451820373535 -27.017543792724609 -0.183980360627174 1.000000000000000
-15.201082229614258 0.838696420192719 -1.350689291954041 1.000000000000000
-15.193285942077637 -13.447560310363770 3.468185663223267 0.000000000000000
-15.181926727294922 -13.338588714599609 1.832062244415283 0.000000000000000
-15.181540489196777 -27.146369934082031 0.233430728316307 1.000000000000000
-15.180289268493652 -11.534165382385254 1.279671907424927 0.000000000000000
-15.179436683654785 15.688048362731934 3.235190391540527 0.000000000000000
-15.168708801269531 -17.991743087768555 1.670339345932007 0.000000000000000
-15.159563064575195 -13.746819496154785 0.389361590147018 0.000000000000000
-15.150439262390137 -15.077635765075684 -0.249958977103233 0.000000000000000
-15.148975372314453 -12.975527763366699 1.569809794425964 0.000000000000000
-15.146852493286133 -24.014671325683594 2.179695844650269 0.000000000000000
-15.140501022338867 -27.072984695434570 -0.243628025054932 1.000000000000000
-15.136693000793457 -16.067165374755859 1.652024030685425 0.000000000000000
-15.123691558837891 -11.288464546203613 3.925398826599121 0.000000000000000
-15.122119903564453 -9.589019775390625 1.796734094619751 0.000000000000000
-15.107898712158203 -24.029985427856445 2.069497108459473 0.000000000000000
-15.102462768554688 -27.434982299804688 0.656000375747681 0.000000000000000
-15.091806411743164 0.585306882858276 -1.164775967597961 0.000000000000000
-15.086194992065430 -15.168570518493652 0.530316412448883 0.000000000000000
-15.083172798156738 -27.526023864746094 2.409636974334717 0.000000000000000
-15.071497917175293 -0.329918086528778 2.006093263626099 0.000000000000000
-15.059157371520996 -17.617061614990234 1.287638902664185 0.000000000000000
-15.032663345336914 -26.862548828125000 -1.247125506401062 1.000000000000000
-15.028808593750000 1.281024456024170 -1.309008121490479 1.000000000000000
-15.026154518127441 2.186186075210571 -1.347154378890991 1.000000000000000
-15.022697448730469 -15.489233970642090 1.531569242477417 0.000000000000000
-15.020099639892578 -9.189189910888672 1.453836083412170 0.000000000000000
-15.011598587036133 -0.276181042194366 -0.810508549213409 0.000000000000000
-15.003798484802246 -11.317669868469238 1.261455893516541 0.000000000000000
-15.000509262084961 -10.285680770874023 2.226785182952881 0.000000000000000
-14.996847152709961 -27.368482589721680 -0.005446823779494 1.000000000000000
-14.996743202209473 -14.849843978881836 1.579483032226562 0.000000000000000
-14.993212699890137 -9.969767570495605 0.619321942329407 0.000000000000000
-14.987284660339355 -26.799016952514648 -1.184939622879028 1.000000000000000
-14.986592292785645 -26.797779083251953 -0.712849974632263 1.000000000000000
-14.982976913452148 -14.285059928894043 2.754816532135010 0.000000000000000
-14.968812942504883 0.365569114685059 -0.664220929145813 1.000000000000000
-14.954010009765625 -26.678264617919922 -1.003872990608215 1.000000000000000
-14.946181297302246 -12.815859794616699 0.374599784612656 0.000000000000000
-14.941757202148438 -26.692451477050781 -1.356981873512268 1.000000000000000
-14.935872077941895 -26.822343826293945 0.466202825307846 1.000000000000000
-14.923132896423340 1.972087860107422 -1.335489153862000 1.000000000000000
-14.912719726562500 -9.269359588623047 0.941728293895721 0.000000000000000
-14.909095764160156 -26.702947616577148 0.229528203606606 1.000000000000000
-14.900619506835938 -26.759037017822266 -0.005345594603568 1.000000000000000
-14.895812988281250 0.068116411566734 -0.031198086217046 1.000000000000000
-14.894169807434082 -13.701652526855469 2.298658847808838 0.000000000000000
-14.856581687927246 -27.458339691162109 0.713928997516632 1.000000000000000
-14.830424308776855 -17.109844207763672 1.301600337028503 0.000000000000000
-14.822326660156250 -22.039665222167969 2.524717330932617 0.000000000000000
-14.821628570556641 -26.703752517700195 0.639749109745026 0.000000000000000
-14.820064544677734 -27.450351715087891 -0.185119703412056 1.000000000000000
-14.818109512329102 -14.570868492126465 1.555302500724792 0.000000000000000
-14.817550659179688 1.334943056106567 -1.319935560226440 1.000000000000000
-14.810563087463379 -9.590920448303223 0.980318486690521 0.000000000000000
-14.810524940490723 -12.789519309997559 0.673086345195770 0.000000000000000
-14.810519218444824 -28.373315811157227 1.285501599311829 0.000000000000000
-14.806979179382324 -20.146936416625977 3.705486536026001 0.000000000000000
-14.798818588256836 -23.425712585449219 0.793332338333130 0.000000000000000
-14.791587829589844 -26.621135711669922 0.579438805580139 1.000000000000000
-14.782075881958008 -26.546150207519531 -0.472010940313339 1.000000000000000
-14.781313896179199 -27.518579483032227 0.654325008392334 1.000000000000000
-14.776422500610352 -11.152633666992188 2.463558435440063 0.000000000000000
-14.776030540466309 -22.234670639038086 3.552610635757446 0.000000000000000
-14.773595809936523 -13.859272956848145 0.969461023807526 0.000000000000000
-14.766229629516602 1.783771753311157 -1.319582104682922 1.000000000000000
-14.763397216796875 -12.711086273193359 1.457984328269958 0.000000000000000
-14.742032051086426 -10.877501487731934 0.348576396703720 0.000000000000000
-14.736126899719238 17.777505874633789 0.217633754014969 1.000000000000000
-14.735948562622070 -19.904321670532227 3.670302152633667 0.000000000000000
-14.729245185852051 3.243557214736938 -1.367275238037109 1.000000000000000
-14.711941719055176 -13.481953620910645 1.147107005119324 0.000000000000000
-14.697305679321289 -13.421422004699707 1.604885935783386 0.000000000000000
-14.689205169677734 -14.103185653686523 1.406099200248718 0.000000000000000
-14.686305999755859 -25.480550765991211 1.237784862518311 0.000000000000000
-14.671436309814453 17.825750350952148 0.217596054077148 1.000000000000000
-14.661321640014648 -13.527183532714844 1.738243460655212 0.000000000000000
-14.657339096069336 -9.108489990234375 0.892317950725555 0.000000000000000
-14.650581359863281 -22.500549316406250 0.871936261653900 0.000000000000000
-14.646417617797852 17.785221099853516 0.615390002727509 0.000000000000000
-14.643402099609375 -24.556741714477539 1.863950252532959 0.000000000000000
-14.639883041381836 -26.497144699096680 0.459704160690308 1.000000000000000
-14.639370918273926 -10.162886619567871 0.818606972694397 0.000000000000000
-14.629631996154785 -14.235637664794922 1.055496454238892 0.000000000000000
-14.628899574279785 -24.824043273925781 1.767378330230713 0.000000000000000
-14.627676963806152 -26.311006546020508 -0.988125860691071 1.000000000000000
-14.624941825866699 -19.725572586059570 3.639222860336304 0.000000000000000
-14.616180419921875 -16.294576644897461 1.300470232963562 0.000000000000000
-14.603315353393555 0.376789987087250 -1.183044552803040 0.000000000000000
-14.601395606994629 -27.584220886230469 0.773667156696320 0.000000000000000
-14.600076675415039 0.364719152450562 -1.126329421997070 0.000000000000000
-14.588378906250000 -14.635298728942871 3.532211542129517 0.000000000000000
-14.586984634399414 -22.241231918334961 0.863756954669952 0.000000000000000
-14.583706855773926 -24.065395355224609 1.076089620590210 0.000000000000000
-14.578269958496094 -24.156194686889648 2.831084251403809 0.000000000000000
-14.564786911010742 -23.010749816894531 0.779709517955780 0.000000000000000
-14.550227165222168 -9.888698577880859 1.873883247375488 0.000000000000000
-14.547146797180176 -13.039581298828125 0.071603022515774 0.000000000000000
-14.544779777526855 -13.634115219116211 2.000409364700317 0.000000000000000
-14.539363861083984 -11.131472587585449 2.241853952407837 0.000000000000000
-14.537443161010742 1.991640329360962 -1.358612179756165 0.000000000000000
-14.533931732177734 5.327867984771729 -1.223716497421265 1.000000000000000
-14.533160209655762 -26.303983688354492 -1.390925884246826 1.000000000000000
-14.526874542236328 -10.284838676452637 2.179148197174072 0.000000000000000
-14.524871826171875 -14.876914978027344 1.475777983665466 0.000000000000000
-14.523900032043457 -10.919919967651367 3.779591321945190 0.000000000000000
-14.523750305175781 -13.262933731079102 0.676523923873901 0.000000000000000
-14.511761665344238 -8.229767799377441 3.470055818557739 0.000000000000000
-14.495305061340332 -21.978286743164062 3.503540039062500 0.000000000000000
-14.491327285766602 -10.052244186401367 1.676457762718201 0.000000000000000
-14.482898712158203 -14.296041488647461 1.365929961204529 0.000000000000000
-14.482387542724609 -26.280309677124023 0.570916533470154 1.000000000000000
-14.480512619018555 2.394896507263184 -1.358980894088745 1.000000000000000
-14.478266716003418 -14.474231719970703 -0.553969800472260 0.000000000000000
-14.476133346557617 -14.086273193359375 1.355750441551208 0.000000000000000
-14.475638389587402 0.458962768316269 -0.781831383705139 1.000000000000000
-14.468304634094238 -26.186599731445312 -0.924522101879120 1.000000000000000
-14.465106964111328 0.872561514377594 -1.369840621948242 1.000000000000000
-14.459516525268555 18.076858520507812 -0.848814845085144 0.000000000000000
-14.457330703735352 2.339245319366455 -1.356030583381653 1.000000000000000
-14.451104164123535 -16.786731719970703 0.889641642570496 0.000000000000000
-14.441291809082031 -13.931672096252441 1.579224705696106 0.000000000000000
-14.435450553894043 -13.228578567504883 1.427560448646545 0.000000000000000
-14.429125785827637 -25.135641098022461 0.551437020301819 0.000000000000000
-14.416265487670898 -9.867695808410645 1.374917268753052 0.000000000000000
-14.415712356567383 -8.982067108154297 -0.884201169013977 0.000000000000000
-14.414043426513672 -13.606401443481445 1.521714806556702 0.000000000000000
-14.411805152893066 -0.977951228618622 -1.393434762954712 1.000000000000000
-14.409044265747070 -14.124182701110840 1.043309688568115 0.000000000000000
-14.400132179260254 -9.954031944274902 1.479218482971191 0.000000000000000
-14.391768455505371 -27.179033279418945 1.353514671325684 0.000000000000000
-14.386040687561035 -26.133537292480469 -1.208588004112244 1.000000000000000
-14.379584312438965 -9.900563240051270 3.631340026855469 0.000000000000000
-14.372525215148926 -24.990554809570312 1.157882571220398 0.000000000000000
-14.359550476074219 -23.509958267211914 1.477502226829529 0.000000000000000
-14.358548164367676 -8.948536872863770 -0.848185956478119 0.000000000000000
-14.343905448913574 15.562857627868652 3.136674642562866 0.000000000000000
-14.339230537414551 -26.111026763916016 -0.634398818016052 1.000000000000000
-14.325565338134766 0.271565109491348 -0.332657128572464 1.000000000000000
-14.323526382446289 -26.099700927734375 -0.119512155652046 1.000000000000000
-14.316184043884277 -22.298883438110352 2.658958911895752 0.000000000000000
-14.315891265869141 -13.211248397827148 1.420288801193237 0.000000000000000
-14.313966751098633 -8.043138504028320 0.186275005340576 0.000000000000000
-14.309621810913086 -10.281753540039062 2.157274246215820 0.000000000000000
-14.309594154357910 -14.456192970275879 0.543299078941345 0.000000000000000
-14.306281089782715 -15.837520599365234 1.267970323562622 0.000000000000000
-14.303966522216797 -9.000366210937500 -0.002949606627226 0.000000000000000
-14.297796249389648 -10.250563621520996 2.153871536254883 0.000000000000000
-14.291832923889160 -8.700509071350098 -0.067166373133659 0.000000000000000
-14.283337593078613 -13.738447189331055 1.406675934791565 0.000000000000000
-14.279421806335449 -23.993923187255859 2.531228780746460 0.000000000000000
-14.276783943176270 -13.976960182189941 2.269316196441650 0.000000000000000
-14.267222404479980 -9.823200225830078 1.646554827690125 0.000000000000000
-14.266297340393066 -14.163089752197266 2.283310413360596 0.000000000000000
-14.262137413024902 -8.088203430175781 -0.034339673817158 0.000000000000000
-14.258149147033691 -22.036375045776367 1.054181933403015 0.000000000000000
-14.248060226440430 -13.148651123046875 1.114509582519531 0.000000000000000
-14.243122100830078 -27.664213180541992 0.173783630132675 1.000000000000000
-14.230977058410645 0.712442874908447 -1.209028124809265 1.000000000000000
-14.230253219604492 -7.739906311035156 0.183779254555702 0.000000000000000
-14.228534698486328 15.459324836730957 3.113805055618286 0.000000000000000
-14.224024772644043 -26.071390151977539 0.222893923521042 1.000000000000000
-14.220428466796875 2.362336158752441 -0.140897497534752 0.000000000000000
-14.209124565124512 -22.016166687011719 0.498553305864334 0.000000000000000
-14.203358650207520 -8.788616180419922 0.992314279079437 0.000000000000000
-14.177927017211914 -8.699142456054688 -0.577964127063751 0.000000000000000
-14.175011634826660 -24.246940612792969 1.290131926536560 0.000000000000000
-14.167905807495117 0.768793046474457 -1.423729062080383 1.000000000000000
-14.162506103515625 -15.882252693176270 -0.126277312636375 0.000000000000000
-14.153637886047363 -8.749660491943359 -0.898265242576599 0.000000000000000
-14.145286560058594 -23.654716491699219 0.895045936107635 0.000000000000000
-14.143853187561035 17.421392440795898 0.599369823932648 0.000000000000000
-14.142674446105957 3.190043449401855 -1.342385411262512 1.000000000000000
-14.134599685668945 -12.084044456481934 1.391712188720703 0.000000000000000
-14.131891250610352 -7.671074390411377 -0.373322486877441 0.000000000000000
-14.130146980285645 -8.782933235168457 2.213984012603760 0.000000000000000
-14.129483222961426 2.831298112869263 -1.334272146224976 1.000000000000000
-14.104128837585449 -15.487198829650879 0.197427332401276 0.000000000000000
-14.084133148193359 -13.587117195129395 0.635516405105591 0.000000000000000
-14.079427719116211 2.233991146087646 -0.111965216696262 0.000000000000000
-14.077107429504395 -23.355243682861328 0.885568320751190 0.000000000000000
-14.073066711425781 -8.572716712951660 0.218592599034309 0.000000000000000
-14.045521736145020 -13.138054847717285 2.354627370834351 0.000000000000000
-14.038166046142578 -14.080374717712402 2.946679592132568 0.000000000000000
-14.037171363830566 -17.007877349853516 1.921582102775574 0.000000000000000
