# This PCD file was generated using the MATLAB® pcwrite function
# from Computer Vision Toolbox®.
# .PCD v.7 - Point Cloud Data file format
VERSION .7
FIELDS x y z intensity
SIZE 8 8 8 8
TYPE F F F F
COUNT 1 1 1 1
WIDTH 650
HEIGHT 1
VIEWPOINT 0 0 0 1 0 0 0
POINTS 650
DATA ascii
3.805996656417847 -14.439807891845703 0.829653859138489 0.000000000000000
3.807071924209595 -11.746252059936523 1.511744618415833 0.000000000000000
3.807567596435547 -12.208175659179688 0.636632502079010 0.000000000000000
3.808353900909424 -9.103269577026367 0.491247147321701 0.000000000000000
3.809676408767700 -2.233158111572266 0.754832446575165 0.000000000000000
3.811292409896851 -12.769261360168457 3.570667743682861 0.000000000000000
3.811721801757812 -8.845618247985840 0.035303048789501 0.000000000000000
3.813356161117554 -11.304391860961914 0.204077690839767 0.000000000000000
3.813427448272705 -9.354783058166504 0.600180566310883 0.000000000000000
3.813719272613525 -8.647268295288086 0.143517106771469 0.000000000000000
3.815065622329712 -10.856439590454102 0.130551323294640 0.000000000000000
3.816321849822998 -11.424335479736328 0.971226096153259 0.000000000000000
3.817261457443237 -10.072303771972656 0.598442494869232 0.000000000000000
3.819667339324951 -11.413132667541504 0.831039607524872 0.000000000000000
3.820214986801147 -4.011761188507080 0.425284087657928 0.000000000000000
3.820847749710083 -8.800787925720215 0.643988072872162 0.000000000000000
3.820938348770142 -6.851357460021973 0.224605798721313 0.000000000000000
3.822456836700439 -13.305068969726562 1.062750935554504 0.000000000000000
3.823609352111816 -13.783754348754883 0.327106952667236 0.000000000000000
3.826213359832764 -8.143656730651855 1.333482623100281 0.000000000000000
3.826851844787598 -14.384387016296387 0.311790764331818 0.000000000000000
3.826915264129639 -6.848020553588867 0.224605798721313 0.000000000000000
3.827135086059570 -9.523178100585938 0.867255806922913 0.000000000000000
3.827341318130493 -4.533699035644531 0.283954560756683 0.000000000000000
3.828328847885132 -11.714170455932617 0.447588443756104 0.000000000000000
3.832870960235596 -9.996439933776855 0.801234543323517 0.000000000000000
3.833133220672607 -11.414958953857422 2.058266401290894 0.000000000000000
3.834332942962646 -4.942836284637451 0.504420340061188 0.000000000000000
3.834586143493652 -9.905634880065918 1.815641760826111 0.000000000000000
3.837743282318115 -14.316656112670898 2.196669101715088 0.000000000000000
3.837857246398926 -12.997192382812500 0.023652691394091 0.000000000000000
3.838679313659668 -6.262683391571045 0.521379232406616 0.000000000000000
3.839378118515015 -4.913826465606689 0.708286702632904 0.000000000000000
3.840091705322266 -4.047177791595459 0.826829552650452 0.000000000000000
3.840213537216187 -6.474862575531006 0.490773439407349 0.000000000000000
3.840933561325073 -11.215889930725098 0.453363865613937 0.000000000000000
3.841955661773682 -5.205772876739502 0.534203290939331 0.000000000000000
3.842199802398682 -3.502757787704468 0.770534753799438 0.000000000000000
3.842622280120850 -9.286993980407715 0.519692540168762 0.000000000000000
3.843687295913696 -13.537295341491699 1.498937129974365 0.000000000000000
3.843819856643677 -8.857506752014160 0.741261839866638 0.000000000000000
3.843857526779175 -8.662723541259766 1.160300493240356 0.000000000000000
3.844840764999390 -8.143386840820312 0.344379216432571 0.000000000000000
3.847527027130127 -11.149999618530273 0.337710022926331 0.000000000000000
3.853434085845947 -1.806638956069946 0.453324675559998 0.000000000000000
3.853904247283936 -3.362092971801758 0.513181447982788 0.000000000000000
3.854547023773193 -13.106758117675781 1.022439837455750 0.000000000000000
3.857981681823730 -4.715883255004883 0.530917763710022 0.000000000000000
3.862993478775024 -10.711690902709961 0.544963300228119 0.000000000000000
3.863467693328857 -8.697093009948730 0.254187494516373 0.000000000000000
3.866268396377563 -12.927102088928223 0.438175231218338 0.000000000000000
3.866708517074585 -13.989345550537109 1.545964241027832 0.000000000000000
3.866731882095337 -5.099587917327881 0.681681692600250 0.000000000000000
3.868100881576538 -10.396008491516113 0.509518563747406 1.000000000000000
3.868179082870483 -3.216902494430542 0.859969794750214 0.000000000000000
3.869166374206543 -4.729555130004883 0.339494645595551 0.000000000000000
3.869247913360596 -10.135743141174316 0.248096495866776 0.000000000000000
3.869528532028198 -8.691510200500488 0.437018662691116 0.000000000000000
3.871284246444702 -14.396560668945312 0.026019355282187 0.000000000000000
3.871388196945190 -10.039194107055664 0.722209632396698 0.000000000000000
3.873214244842529 -9.571626663208008 1.099841952323914 0.000000000000000
3.873481988906860 -11.948309898376465 1.138673782348633 0.000000000000000
3.874287366867065 -9.544087409973145 0.393903821706772 1.000000000000000
3.877367973327637 -9.233816146850586 0.951973617076874 0.000000000000000
3.877659320831299 -4.437377929687500 0.361459106206894 0.000000000000000
3.877671241760254 -9.981210708618164 0.018688974902034 0.000000000000000
3.879534006118774 -10.494499206542969 0.406357467174530 0.000000000000000
3.879575252532959 -12.493501663208008 1.393443822860718 0.000000000000000
3.881004333496094 -3.791017770767212 0.927365601062775 0.000000000000000
3.881862640380859 -9.211176872253418 1.135335206985474 0.000000000000000
3.882918834686279 -4.646224498748779 0.243198677897453 0.000000000000000
3.883141517639160 -12.312752723693848 0.493717253208160 0.000000000000000
3.884753704071045 -4.916833400726318 0.568072915077209 0.000000000000000
3.887142658233643 -10.244824409484863 2.279158592224121 0.000000000000000
3.887438774108887 -9.893134117126465 0.857096552848816 0.000000000000000
3.890587329864502 -2.486029863357544 0.789204239845276 0.000000000000000
3.892107963562012 -2.719618082046509 0.703684687614441 0.000000000000000
3.894839525222778 -9.625067710876465 0.656897008419037 0.000000000000000
3.896403312683105 -7.127553462982178 0.686395108699799 0.000000000000000
3.897393465042114 -13.546307563781738 0.891773700714111 0.000000000000000
3.899558067321777 -8.649439811706543 0.052990719676018 0.000000000000000
3.900613069534302 -14.327972412109375 1.490023374557495 0.000000000000000
3.901628732681274 -1.969316124916077 0.909056842327118 0.000000000000000
3.906612873077393 -14.318459510803223 0.253882765769958 0.000000000000000
3.907443761825562 -11.165401458740234 0.794001996517181 0.000000000000000
3.908012390136719 -11.265315055847168 0.043703645467758 0.000000000000000
3.908870697021484 -3.364771127700806 1.072784781455994 0.000000000000000
3.909004926681519 -11.232707977294922 2.473840236663818 0.000000000000000
3.910859107971191 -9.412826538085938 0.743157446384430 0.000000000000000
3.911178827285767 -10.652070045471191 1.939649820327759 0.000000000000000
3.911938667297363 -8.963453292846680 0.929641008377075 0.000000000000000
3.912214994430542 -8.390151977539062 2.480521917343140 0.000000000000000
3.912765979766846 -8.382931709289551 0.300425916910172 0.000000000000000
3.913232803344727 -2.052838087081909 0.339247494935989 0.000000000000000
3.913493394851685 -11.688061714172363 0.803556978702545 0.000000000000000
3.914029836654663 -8.979355812072754 0.412258565425873 0.000000000000000
3.916255235671997 -2.760976314544678 0.710135161876678 0.000000000000000
3.916480541229248 -9.203417778015137 0.344037175178528 0.000000000000000
3.918232679367065 -8.403057098388672 0.283275246620178 0.000000000000000
3.918495416641235 -12.643765449523926 3.546856403350830 0.000000000000000
3.919207334518433 -8.948565483093262 1.109604001045227 0.000000000000000
3.919755935668945 -10.342747688293457 0.274178504943848 0.000000000000000
3.919835329055786 -8.823982238769531 0.406371533870697 0.000000000000000
3.920035123825073 -3.121712684631348 0.297718018293381 0.000000000000000
3.921568870544434 -9.431165695190430 0.606822848320007 0.000000000000000
3.922022342681885 -11.729849815368652 0.830166041851044 0.000000000000000
3.924069166183472 -9.452068328857422 0.726419150829315 0.000000000000000
3.924959182739258 -8.368242263793945 1.131621003150940 0.000000000000000
3.926623344421387 -1.684413194656372 0.311515331268311 0.000000000000000
3.926690816879272 -10.752275466918945 0.923002302646637 0.000000000000000
3.926917552947998 -10.637515068054199 0.914322078227997 0.000000000000000
3.928106784820557 -10.307201385498047 0.549122869968414 0.000000000000000
3.929209709167480 -8.163566589355469 0.033206559717655 0.000000000000000
3.932114601135254 -8.218730926513672 0.866049945354462 0.000000000000000
3.936064481735229 -9.142074584960938 0.227612301707268 0.000000000000000
3.936241149902344 -14.099932670593262 1.095577836036682 0.000000000000000
3.937187194824219 -1.411112666130066 0.337244659662247 0.000000000000000
3.938896656036377 -9.767755508422852 0.767880916595459 0.000000000000000
3.939703464508057 -8.449103355407715 0.571820437908173 0.000000000000000
3.940087556838989 -8.289960861206055 0.157009154558182 0.000000000000000
3.941416740417480 -9.098926544189453 1.056204080581665 0.000000000000000
3.942073822021484 -9.684872627258301 0.863348901271820 0.000000000000000
3.943149566650391 -3.091935157775879 0.502798020839691 1.000000000000000
3.945436954498291 -10.231216430664062 0.229696467518806 0.000000000000000
3.945965528488159 -8.257307052612305 0.667241990566254 0.000000000000000
3.946071386337280 -8.338183403015137 0.654768466949463 0.000000000000000
3.947925329208374 -6.915279388427734 0.580564498901367 0.000000000000000
3.949642181396484 -9.444701194763184 0.549055874347687 0.000000000000000
3.953543901443481 -5.969078540802002 0.591145515441895 0.000000000000000
3.953650474548340 -12.995053291320801 0.676210641860962 0.000000000000000
3.956146955490112 -3.173100471496582 1.054864406585693 0.000000000000000
3.956824779510498 -5.261193275451660 0.573627293109894 0.000000000000000
3.957338333129883 -2.061728000640869 0.351182937622070 0.000000000000000
3.957580089569092 -6.519835948944092 0.277002513408661 0.000000000000000
3.958782911300659 -9.982961654663086 1.143903374671936 0.000000000000000
3.961881637573242 -3.366344213485718 0.369015276432037 0.000000000000000
3.962074518203735 -2.324907064437866 0.680814921855927 0.000000000000000
3.962817192077637 -8.727478027343750 0.458725273609161 0.000000000000000
3.964028835296631 -8.687013626098633 1.169050097465515 0.000000000000000
3.964348316192627 -4.927308559417725 0.387907356023788 0.000000000000000
3.965580701828003 -12.088396072387695 0.927565217018127 0.000000000000000
3.965595960617065 -8.714601516723633 0.642648696899414 0.000000000000000
3.967241525650024 -2.588284730911255 1.269248604774475 0.000000000000000
3.967708826065063 -3.899600982666016 0.824483931064606 0.000000000000000
3.969780921936035 -12.692420959472656 1.098029732704163 0.000000000000000
3.977119684219360 -2.814811468124390 0.518993198871613 0.000000000000000
3.977131605148315 -4.579845905303955 0.646093606948853 0.000000000000000
3.979100942611694 -14.223735809326172 1.482036113739014 0.000000000000000
3.979462623596191 -4.341604232788086 0.559828639030457 1.000000000000000
3.979803800582886 -7.898529052734375 0.644845426082611 0.000000000000000
3.980016946792603 -11.315734863281250 2.495018959045410 0.000000000000000
3.980728387832642 -8.507992744445801 1.249982953071594 0.000000000000000
3.980855464935303 -8.582294464111328 1.258952736854553 0.000000000000000
3.981325626373291 -11.332090377807617 0.991715729236603 0.000000000000000
3.981553792953491 -13.267843246459961 0.316773414611816 0.000000000000000
3.982250690460205 -10.435038566589355 0.577527999877930 0.000000000000000
3.983089923858643 -10.838561058044434 0.330612391233444 0.000000000000000
3.984120607376099 -9.676745414733887 0.994746148586273 0.000000000000000
3.986898422241211 -2.558462142944336 0.504588544368744 0.000000000000000
3.989071607589722 -6.329881668090820 0.574393749237061 0.000000000000000
3.989837884902954 -5.080024242401123 0.562863111495972 0.000000000000000
3.990859270095825 -12.814747810363770 0.900886893272400 0.000000000000000
3.991258621215820 -7.813722610473633 0.183790683746338 0.000000000000000
3.991354465484619 -4.810000419616699 0.347260862588882 0.000000000000000
3.991712808609009 -11.524776458740234 1.623025417327881 0.000000000000000
3.992995738983154 -4.767785549163818 0.249780297279358 1.000000000000000
3.994691610336304 -11.393022537231445 0.601031959056854 0.000000000000000
3.995357275009155 -11.319570541381836 0.020950922742486 0.000000000000000
3.999517440795898 -5.282941818237305 0.629854500293732 0.000000000000000
3.999541044235229 -12.238057136535645 0.864187002182007 0.000000000000000
4.000665664672852 -8.931884765625000 1.198215603828430 0.000000000000000
4.000707149505615 -11.522128105163574 1.493273138999939 0.000000000000000
4.000774860382080 -7.012397289276123 0.703492045402527 0.000000000000000
4.003828525543213 -9.910319328308105 0.820562481880188 0.000000000000000
4.004095554351807 -8.158231735229492 0.662588119506836 0.000000000000000
4.004209041595459 -8.509762763977051 0.943694770336151 0.000000000000000
4.009584426879883 -8.269162178039551 0.192502737045288 0.000000000000000
4.009677410125732 -8.783802986145020 0.685354530811310 0.000000000000000
4.009782314300537 -10.960801124572754 0.625962257385254 0.000000000000000
4.009839534759521 -12.166645050048828 0.810450792312622 0.000000000000000
4.010543823242188 -8.020053863525391 0.671078741550446 0.000000000000000
4.012417793273926 -8.056818962097168 1.197746396064758 0.000000000000000
4.015351772308350 -11.871032714843750 0.455137789249420 0.000000000000000
4.015474796295166 -2.563463211059570 0.706030368804932 0.000000000000000
4.019690990447998 -10.330211639404297 1.259025812149048 0.000000000000000
4.020912170410156 -8.829619407653809 0.520349860191345 0.000000000000000
4.021599292755127 -11.239309310913086 0.801234781742096 0.000000000000000
4.021628856658936 -11.943819999694824 0.578898310661316 0.000000000000000
4.021741390228271 -10.086711883544922 1.329460263252258 0.000000000000000
4.023774623870850 -5.438216686248779 0.558560073375702 0.000000000000000
4.024029731750488 -2.436463117599487 0.333897918462753 0.000000000000000
4.024726867675781 -10.657878875732422 0.413761615753174 0.000000000000000
4.028786659240723 -13.381109237670898 0.776399791240692 0.000000000000000
4.029650211334229 -2.778209209442139 0.725381672382355 0.000000000000000
4.031176567077637 -10.154654502868652 0.375800788402557 0.000000000000000
4.031198978424072 -8.667830467224121 0.108452446758747 0.000000000000000
4.031260490417480 -8.249951362609863 0.740395128726959 0.000000000000000
4.032686233520508 -8.171006202697754 1.115579962730408 0.000000000000000
4.033252239227295 -11.514581680297852 1.030939817428589 0.000000000000000
4.034369468688965 -8.602294921875000 0.527880907058716 0.000000000000000
4.034801006317139 -7.759374618530273 0.199995219707489 0.000000000000000
4.035459041595459 -5.183401107788086 0.595519483089447 0.000000000000000
4.035879135131836 -11.931720733642578 0.070348970592022 0.000000000000000
4.036919116973877 -8.230919837951660 0.086405083537102 0.000000000000000
4.037628173828125 -13.126141548156738 0.921781659126282 0.000000000000000
4.038889408111572 -8.281317710876465 0.924525320529938 0.000000000000000
4.039225101470947 -12.028695106506348 0.534035444259644 0.000000000000000
4.042366504669189 -7.629549026489258 0.612854242324829 0.000000000000000
4.043038845062256 -11.334759712219238 0.205856442451477 0.000000000000000
4.046263694763184 -2.390856981277466 0.803357422351837 0.000000000000000
4.048772811889648 -8.973717689514160 0.376478493213654 0.000000000000000
4.050892829895020 -8.352127075195312 0.497856348752975 0.000000000000000
4.052969932556152 -14.349654197692871 0.169167667627335 0.000000000000000
4.056677818298340 -7.976126194000244 1.861285686492920 0.000000000000000
4.056969165802002 -9.076267242431641 0.533203303813934 0.000000000000000
4.059665203094482 -13.555629730224609 0.704452395439148 0.000000000000000
4.061157226562500 -13.155233383178711 1.199686646461487 0.000000000000000
4.061724662780762 -4.752645015716553 0.594273746013641 0.000000000000000
4.061941623687744 -1.492169737815857 1.159509301185608 0.000000000000000
4.061955451965332 -10.107488632202148 0.249102428555489 0.000000000000000
4.063820362091064 -13.377288818359375 0.292858809232712 0.000000000000000
4.064442157745361 -9.944227218627930 0.845475316047668 0.000000000000000
4.064635276794434 -7.409465789794922 1.757835626602173 0.000000000000000
4.067658424377441 -4.201604366302490 0.530153214931488 0.000000000000000
4.067666530609131 -2.900259733200073 0.532126903533936 0.000000000000000
4.071223258972168 -10.190129280090332 0.821235597133636 0.000000000000000
4.071805477142334 -8.653419494628906 0.292192518711090 0.000000000000000
4.078830242156982 -5.202672481536865 0.576057910919189 0.000000000000000
4.079380035400391 -2.438364982604980 0.383217960596085 0.000000000000000
4.079720973968506 -4.243605613708496 1.006218552589417 0.000000000000000
4.080778598785400 -13.699178695678711 2.973169803619385 0.000000000000000
4.082607269287109 -8.889300346374512 0.656578600406647 0.000000000000000
4.088247776031494 -3.649412631988525 0.812169492244720 1.000000000000000
4.088267803192139 -8.610259056091309 0.291215270757675 0.000000000000000
4.088328838348389 -8.637997627258301 1.170022249221802 0.000000000000000
4.088818550109863 -7.930769920349121 0.616115570068359 0.000000000000000
4.090047359466553 -10.075600624084473 0.750856459140778 0.000000000000000
4.090272903442383 -8.213150024414062 0.775309860706329 0.000000000000000
4.092126846313477 -8.589348793029785 0.510281324386597 0.000000000000000
4.092334747314453 -3.810025453567505 0.310648709535599 0.000000000000000
4.092547416687012 -5.059108734130859 0.693120718002319 0.000000000000000
4.096208095550537 -10.037949562072754 1.087864875793457 0.000000000000000
4.096652507781982 -2.460349321365356 0.816836535930634 0.000000000000000
4.097117424011230 -9.676611900329590 0.867627799510956 0.000000000000000
4.098184108734131 -9.414392471313477 0.077059760689735 0.000000000000000
4.099071025848389 -4.762582302093506 0.597301900386810 0.000000000000000
4.101036071777344 -12.562724113464355 0.810589194297791 0.000000000000000
4.101763248443604 -4.029946327209473 0.501055836677551 0.000000000000000
4.101911067962646 -10.636981010437012 0.414052009582520 0.000000000000000
4.101969718933105 -12.779202461242676 1.989082217216492 0.000000000000000
4.102920055389404 -8.771544456481934 1.185577273368835 0.000000000000000
4.104656219482422 -11.670101165771484 0.164103612303734 0.000000000000000
4.104994773864746 -9.496085166931152 0.983390569686890 0.000000000000000
4.106138706207275 -2.743011951446533 0.731832087039948 0.000000000000000
4.108005523681641 -7.559081077575684 1.470575451850891 0.000000000000000
4.109336853027344 -11.441682815551758 0.675439000129700 0.000000000000000
4.109663963317871 -10.873615264892578 0.802658617496490 0.000000000000000
4.109729766845703 -11.876233100891113 0.649822294712067 0.000000000000000
4.110702037811279 -1.493817329406738 1.171932697296143 0.000000000000000
4.113929271697998 -10.033788681030273 0.581617891788483 0.000000000000000
4.114105224609375 -10.142992019653320 0.229277625679970 0.000000000000000
4.114671707153320 -3.963511466979980 0.976564526557922 1.000000000000000
4.116068363189697 -7.933581352233887 0.427748382091522 0.000000000000000
4.116719245910645 -8.120819091796875 0.593560039997101 0.000000000000000
4.118863582611084 -2.940560817718506 0.440984696149826 0.000000000000000
4.119750499725342 -4.440213203430176 0.527792692184448 0.000000000000000
4.120361328125000 -2.894656419754028 0.536363601684570 0.000000000000000
4.121107578277588 -9.111971855163574 0.555617392063141 0.000000000000000
4.124254226684570 -11.971595764160156 0.386861890554428 0.000000000000000
4.124484539031982 -5.494096279144287 0.598628044128418 0.000000000000000
4.125668525695801 -9.502901077270508 0.057860858738422 0.000000000000000
4.130232334136963 -11.593275070190430 0.565316021442413 0.000000000000000
4.130964756011963 -4.458849906921387 0.513617575168610 0.000000000000000
4.132149219512939 -5.144687652587891 0.702865064144135 0.000000000000000
4.132381916046143 -14.148141860961914 0.506980478763580 0.000000000000000
4.132949352264404 -3.037174224853516 0.393747508525848 0.000000000000000
4.133364677429199 -10.408359527587891 0.859753549098969 0.000000000000000
4.133785724639893 -10.413130760192871 0.903391361236572 0.000000000000000
4.134399890899658 -3.016072511672974 0.156357198953629 0.000000000000000
4.135499477386475 -12.379809379577637 0.448953390121460 0.000000000000000
4.135642051696777 -5.548793792724609 0.571396768093109 0.000000000000000
4.135827541351318 -8.780723571777344 0.763877809047699 0.000000000000000
4.136260032653809 -9.299798011779785 2.117059946060181 0.000000000000000
4.137767791748047 -9.344448089599609 0.863551080226898 0.000000000000000
4.137993335723877 -8.685622215270996 0.367918670177460 0.000000000000000
4.140473365783691 -11.965075492858887 0.265214800834656 0.000000000000000
4.142693042755127 -12.446864128112793 0.602575540542603 0.000000000000000
4.144375801086426 -2.315074205398560 0.811444938182831 0.000000000000000
4.146883964538574 -3.021632194519043 0.546531617641449 0.000000000000000
4.148470878601074 -9.251486778259277 0.426723778247833 0.000000000000000
4.149290561676025 -4.252232074737549 0.564749360084534 0.000000000000000
4.149637222290039 -7.502193927764893 0.814949989318848 0.000000000000000
4.150388240814209 -13.348334312438965 0.695900321006775 0.000000000000000
4.150397777557373 -11.462846755981445 0.466203570365906 0.000000000000000
4.150727748870850 -9.373716354370117 0.707871615886688 0.000000000000000
4.153775691986084 -14.048116683959961 0.278724133968353 0.000000000000000
4.153995037078857 -8.238512992858887 1.919120073318481 0.000000000000000
4.155463218688965 -3.841808319091797 0.314420849084854 0.000000000000000
4.155635356903076 -4.928686618804932 0.258930325508118 0.000000000000000
4.156216144561768 -3.171694040298462 0.893667757511139 0.000000000000000
4.158528327941895 -0.963283240795135 0.887878060340881 0.000000000000000
4.161604404449463 -9.080936431884766 0.786160230636597 0.000000000000000
4.162621498107910 -8.451740264892578 0.450885415077209 0.000000000000000
4.162744045257568 -1.941826820373535 0.785160601139069 1.000000000000000
4.164213657379150 -8.664978027343750 0.349156767129898 0.000000000000000
4.165168762207031 -3.057270765304565 0.550344645977020 0.000000000000000
4.165882110595703 -7.541504859924316 0.081202685832977 0.000000000000000
4.167041301727295 -9.923663139343262 0.142774924635887 0.000000000000000
4.171029567718506 -13.899238586425781 0.108910322189331 0.000000000000000
4.173423767089844 -10.186998367309570 0.399824410676956 0.000000000000000
4.173682689666748 -11.412528038024902 0.628340542316437 0.000000000000000
4.173904418945312 -9.042270660400391 0.132110565900803 0.000000000000000
4.175095558166504 -8.963321685791016 1.465423345565796 0.000000000000000
4.176620006561279 -8.690793991088867 0.647202730178833 0.000000000000000
4.180387973785400 -13.783492088317871 0.495430022478104 0.000000000000000
4.180806159973145 -8.755015373229980 1.437862515449524 0.000000000000000
4.180954456329346 -4.529586791992188 0.585946381092072 0.000000000000000
4.182808876037598 -10.132689476013184 0.693517565727234 0.000000000000000
4.182853698730469 -3.600616455078125 0.524626374244690 0.000000000000000
4.187947750091553 -13.211681365966797 0.823409795761108 0.000000000000000
4.195695877075195 -10.555110931396484 0.762391924858093 0.000000000000000
4.196166038513184 -4.617027282714844 0.250582933425903 0.000000000000000
4.199690341949463 -8.293101310729980 0.051918391138315 0.000000000000000
4.201573848724365 -13.530443191528320 0.678049087524414 0.000000000000000
4.201764106750488 -5.841346740722656 0.683982610702515 0.000000000000000
4.203510761260986 -4.079749584197998 0.510431051254272 0.000000000000000
4.204063892364502 -4.987890720367432 0.568418860435486 0.000000000000000
4.205379962921143 -10.155693054199219 0.420347511768341 0.000000000000000
4.205601215362549 -7.805425643920898 0.492600053548813 0.000000000000000
4.206190586090088 -8.692789077758789 0.462167114019394 0.000000000000000
4.207007884979248 -10.655016899108887 0.107968658208847 1.000000000000000
4.207843303680420 -10.366822242736816 0.729394495487213 0.000000000000000
4.208486557006836 -7.124958515167236 0.125660970807076 0.000000000000000
4.208847999572754 -8.575409889221191 0.255148708820343 0.000000000000000
4.213770866394043 -7.004027843475342 0.406919717788696 0.000000000000000
4.214611053466797 -7.053830146789551 0.424883812665939 0.000000000000000
4.215478897094727 -4.931158542633057 0.565293729305267 0.000000000000000
4.217410087585449 -11.287181854248047 0.252398073673248 0.000000000000000
4.220341205596924 -8.047434806823730 0.487359374761581 0.000000000000000
4.221222400665283 -7.728782653808594 0.167554080486298 0.000000000000000
4.221301555633545 -3.432272195816040 0.806305468082428 0.000000000000000
4.221378326416016 -7.268218517303467 0.499359697103500 0.000000000000000
4.222240924835205 -8.758296966552734 0.802786111831665 0.000000000000000
4.223763942718506 -1.616193771362305 0.481710433959961 0.000000000000000
4.224223136901855 -13.233054161071777 0.959167420864105 0.000000000000000
4.230338573455811 -1.955407857894897 0.796617805957794 0.000000000000000
4.231193542480469 -8.441769599914551 0.743164598941803 0.000000000000000
4.231431484222412 -2.137264251708984 0.429756343364716 0.000000000000000
4.232365131378174 -11.086952209472656 0.453822433948517 0.000000000000000
4.233394622802734 -9.651262283325195 0.727710723876953 0.000000000000000
4.234166145324707 -11.742838859558105 0.357400238513947 0.000000000000000
4.235085964202881 -7.316497802734375 0.323285400867462 0.000000000000000
4.235445976257324 -8.831750869750977 0.318082749843597 0.000000000000000
4.237106800079346 -9.304366111755371 0.076729550957680 1.000000000000000
4.238505840301514 -8.191597938537598 0.122348181903362 0.000000000000000
4.240373611450195 -3.319861173629761 0.611681580543518 0.000000000000000
4.241850376129150 -8.622095108032227 0.238196313381195 0.000000000000000
4.241949558258057 -4.595668315887451 1.300863623619080 0.000000000000000
4.242213249206543 -9.322483062744141 0.529607236385345 0.000000000000000
4.243776798248291 -11.715636253356934 0.620323896408081 0.000000000000000
4.246524333953857 -4.771892547607422 0.556612908840179 0.000000000000000
4.248254776000977 -9.774047851562500 0.694785356521606 0.000000000000000
4.250418186187744 -8.884034156799316 0.737052261829376 0.000000000000000
4.251097679138184 -4.968783855438232 0.656153440475464 0.000000000000000
4.252246856689453 -9.145629882812500 1.494743585586548 0.000000000000000
4.254191875457764 -12.884603500366211 1.541166901588440 0.000000000000000
4.255733489990234 -11.081361770629883 0.362675398588181 0.000000000000000
4.259785652160645 -13.616308212280273 0.161861866712570 0.000000000000000
4.260664939880371 -10.097220420837402 0.735603690147400 0.000000000000000
4.262402534484863 -11.211417198181152 0.481742054224014 0.000000000000000
4.266610622406006 -11.374032020568848 0.698318898677826 0.000000000000000
4.266787528991699 -6.015953063964844 1.093056917190552 0.000000000000000
4.268468856811523 -9.738615989685059 0.386177510023117 0.000000000000000
4.268543720245361 -2.079510211944580 0.703684687614441 0.000000000000000
4.272540092468262 -8.504612922668457 0.217644557356834 0.000000000000000
4.273420810699463 -4.353828907012939 0.433019459247589 0.000000000000000
4.277245521545410 -7.031513214111328 0.746114790439606 0.000000000000000
4.278521060943604 -4.367861747741699 0.410395085811615 0.000000000000000
4.278688430786133 -8.501308441162109 0.528768479824066 0.000000000000000
4.278779983520508 -8.981133460998535 1.323852658271790 0.000000000000000
4.279085159301758 -8.350562095642090 0.684112012386322 0.000000000000000
4.281355381011963 -7.239087104797363 0.402507960796356 0.000000000000000
4.283872127532959 -10.878584861755371 0.087746657431126 0.000000000000000
4.284062385559082 -13.265295982360840 1.706667304039001 0.000000000000000
4.289045810699463 -9.886773109436035 0.868991732597351 0.000000000000000
4.289277553558350 -12.120609283447266 0.269319534301758 0.000000000000000
4.289505481719971 -8.982642173767090 0.867385625839233 0.000000000000000
4.289821147918701 -1.909233689308167 0.976665854454041 0.000000000000000
4.290333747863770 -13.725720405578613 1.760623455047607 0.000000000000000
4.290334701538086 -7.866416931152344 0.256545156240463 0.000000000000000
4.293224811553955 -10.471087455749512 0.258795827627182 0.000000000000000
4.294114589691162 -2.150145053863525 0.820880293846130 0.000000000000000
4.295169353485107 -3.301519870758057 0.926017701625824 0.000000000000000
4.296903610229492 -8.935486793518066 0.646384596824646 0.000000000000000
4.304605007171631 -1.107797622680664 0.924533665180206 0.000000000000000
4.304707050323486 -8.568642616271973 0.662131369113922 0.000000000000000
4.304719448089600 -12.175059318542480 0.245700314640999 0.000000000000000
4.308108329772949 -5.566809654235840 1.043212532997131 0.000000000000000
4.309573650360107 -2.786815166473389 0.403907448053360 0.000000000000000
4.316203594207764 -1.954375386238098 0.363741904497147 0.000000000000000
4.317251205444336 -8.922314643859863 1.055780410766602 0.000000000000000
4.317260742187500 -8.747610092163086 0.504407525062561 0.000000000000000
4.319537162780762 -3.567340135574341 0.685875117778778 0.000000000000000
4.320108413696289 -3.151894569396973 0.214785367250443 0.000000000000000
4.322353363037109 -3.690463781356812 1.522891283035278 0.000000000000000
4.322363853454590 -11.904031753540039 0.703619301319122 0.000000000000000
4.322514057159424 -2.972003221511841 0.526360452175140 0.000000000000000
4.324341773986816 -12.711393356323242 0.178110510110855 0.000000000000000
4.324349880218506 -14.229537010192871 0.340092480182648 0.000000000000000
4.327064514160156 -4.532446861267090 0.568072915077209 1.000000000000000
4.328348159790039 -8.767762184143066 0.524420142173767 0.000000000000000
4.330291748046875 -12.962928771972656 0.680387318134308 0.000000000000000
4.331416606903076 -12.921250343322754 0.049949117004871 0.000000000000000
4.332242965698242 -3.722240447998047 0.608387172222137 0.000000000000000
4.332872390747070 -8.312031745910645 0.849761962890625 0.000000000000000
4.337970733642578 -8.517788887023926 2.561273574829102 0.000000000000000
4.338960647583008 -4.451580047607422 0.441232383251190 0.000000000000000
4.339149951934814 -2.852565765380859 1.391411304473877 0.000000000000000
4.339701652526855 -9.049144744873047 0.634924709796906 0.000000000000000
4.339999675750732 -2.943042993545532 1.090705394744873 0.000000000000000
4.341256141662598 -4.190253257751465 0.416621983051300 0.000000000000000
4.345556735992432 -9.123760223388672 0.211686000227928 0.000000000000000
4.346056938171387 -12.883541107177734 0.441550821065903 0.000000000000000
4.348577022552490 -1.733938694000244 0.368443936109543 0.000000000000000
4.349515914916992 -11.069072723388672 0.409076988697052 0.000000000000000
4.349695682525635 -12.381972312927246 0.729136884212494 0.000000000000000
4.350627899169922 -2.659388542175293 0.678547024726868 0.000000000000000
4.351583957672119 -5.060611248016357 0.486615449190140 0.000000000000000
4.351796150207520 -13.338771820068359 1.077141404151917 0.000000000000000
4.352079391479492 -8.682951927185059 0.614467680454254 0.000000000000000
4.353335857391357 -2.840178251266479 0.521568119525909 0.000000000000000
4.355378627777100 -13.524044990539551 1.118199110031128 0.000000000000000
4.356175422668457 -8.089620590209961 0.033675704151392 0.000000000000000
4.357215881347656 -9.285619735717773 0.846891641616821 0.000000000000000
4.358408451080322 -1.904866576194763 0.431200891733170 0.000000000000000
4.358891487121582 -2.615153312683105 1.057308077812195 0.000000000000000
4.359884738922119 -2.644185543060303 0.678547024726868 0.000000000000000
4.361021041870117 -12.907070159912109 1.045911073684692 0.000000000000000
4.365086555480957 -7.380662918090820 0.542489349842072 0.000000000000000
4.365270614624023 -3.451443195343018 1.157499790191650 0.000000000000000
4.366052627563477 -4.618262290954590 0.512457609176636 0.000000000000000
4.367218017578125 -11.321438789367676 0.650812208652496 0.000000000000000
4.367744922637939 -8.946878433227539 0.629873573780060 0.000000000000000
4.368551254272461 -1.457289457321167 0.787182450294495 0.000000000000000
4.368683338165283 -3.507994413375854 0.830347955226898 0.000000000000000
4.370874404907227 -11.330917358398438 1.026224732398987 0.000000000000000
4.375533103942871 -7.398326396942139 0.915546357631683 0.000000000000000
4.377034187316895 -2.877471208572388 0.321296989917755 0.000000000000000
4.377514839172363 -12.287380218505859 3.495092630386353 0.000000000000000
4.378171920776367 -7.563691139221191 0.468721926212311 0.000000000000000
4.378217697143555 -4.219733238220215 0.431603431701660 0.000000000000000
4.379309654235840 -9.153438568115234 0.134604230523109 0.000000000000000
4.379635334014893 -5.124633789062500 0.504503130912781 1.000000000000000
4.379923343658447 -11.666192054748535 2.591952323913574 0.000000000000000
4.381184577941895 -5.406645298004150 0.426845014095306 0.000000000000000
4.381536960601807 -7.864959716796875 0.816175878047943 0.000000000000000
4.381970882415771 -13.206544876098633 0.773071467876434 0.000000000000000
4.382225036621094 -3.042097091674805 0.911864578723907 0.000000000000000
4.383342266082764 -11.193018913269043 1.781495094299316 0.000000000000000
4.384073734283447 -1.144580602645874 0.942454099655151 0.000000000000000
4.384284973144531 -8.069473266601562 0.086555875837803 0.000000000000000
4.384785175323486 -11.505507469177246 0.423514991998672 0.000000000000000
4.384966850280762 -1.342627525329590 0.679642140865326 0.000000000000000
4.385312080383301 -5.959190845489502 0.742415845394135 0.000000000000000
4.385560035705566 -12.852341651916504 0.023701559752226 0.000000000000000
4.387125968933105 -5.918267726898193 0.739220917224884 0.000000000000000
4.387524127960205 -13.445893287658691 0.486492216587067 0.000000000000000
4.388771057128906 -7.588721752166748 0.166793167591095 0.000000000000000
4.389956951141357 -5.760139465332031 0.656552135944366 0.000000000000000
4.392599105834961 -11.424632072448730 0.021362820640206 0.000000000000000
4.394017696380615 -5.409537315368652 0.387201398611069 0.000000000000000
4.394682407379150 -9.307953834533691 1.369757533073425 0.000000000000000
4.394975662231445 -13.561767578125000 1.011889219284058 0.000000000000000
4.395490646362305 -4.508632659912109 1.076310276985168 0.000000000000000
4.398378372192383 -3.161835670471191 1.451457262039185 1.000000000000000
4.399362087249756 -11.053984642028809 0.592280983924866 0.000000000000000
4.402636528015137 -8.976585388183594 0.871205151081085 0.000000000000000
4.406242847442627 -3.144219160079956 1.450421929359436 0.000000000000000
4.406844615936279 -14.246778488159180 1.417551159858704 0.000000000000000
4.408420085906982 -6.133610248565674 1.119445085525513 0.000000000000000
4.408883094787598 -11.196040153503418 0.275164902210236 0.000000000000000
4.410552978515625 -11.452826499938965 0.422139942646027 0.000000000000000
4.411870002746582 -8.290188789367676 0.304969966411591 0.000000000000000
4.412466049194336 -3.429819345474243 0.192231819033623 0.000000000000000
4.413661956787109 -13.500425338745117 0.761780202388763 0.000000000000000
4.414766311645508 -7.695528984069824 0.032517507672310 0.000000000000000
4.415008068084717 -11.395543098449707 1.161672830581665 0.000000000000000
4.416050434112549 -4.073729515075684 1.609854578971863 0.000000000000000
4.416712760925293 -11.252196311950684 0.021097529679537 0.000000000000000
4.417050838470459 -1.830324888229370 0.543064951896667 0.000000000000000
4.419767856597900 -13.230779647827148 0.265408098697662 0.000000000000000
4.423980236053467 -8.912439346313477 0.998407483100891 0.000000000000000
4.424992561340332 -11.611010551452637 0.810062468051910 0.000000000000000
4.428822040557861 -11.029273986816406 0.797752320766449 0.000000000000000
4.429591655731201 -9.381892204284668 0.876686215400696 0.000000000000000
4.430286884307861 -5.057291030883789 0.412396460771561 0.000000000000000
4.430412292480469 -8.786723136901855 0.736455142498016 0.000000000000000
4.431424617767334 -11.983551979064941 0.292174100875854 0.000000000000000
4.432071685791016 -9.219868659973145 1.361315250396729 0.000000000000000
4.432810306549072 -9.223879814147949 0.214366614818573 0.000000000000000
4.433340549468994 -5.119431495666504 0.613937616348267 0.000000000000000
4.433534622192383 -12.668690681457520 0.694025039672852 0.000000000000000
4.435706615447998 -12.976327896118164 0.260918676853180 0.000000000000000
4.436654567718506 -9.742557525634766 0.244804382324219 0.000000000000000
4.437084197998047 -12.400479316711426 0.681012094020844 0.000000000000000
4.438039302825928 -11.664207458496094 0.021781697869301 0.000000000000000
4.438898563385010 -8.031771659851074 0.757693111896515 0.000000000000000
4.441856384277344 -11.491031646728516 0.092459701001644 0.000000000000000
4.442111015319824 -9.999683380126953 0.628992080688477 0.000000000000000
4.442623138427734 -11.107912063598633 0.549531221389771 0.000000000000000
4.443504333496094 -11.370017051696777 0.115055985748768 0.000000000000000
4.446284770965576 -8.140856742858887 0.033998239785433 0.000000000000000
4.446763992309570 -8.204255104064941 0.052119452506304 0.000000000000000
4.446950435638428 -7.542799472808838 0.793785274028778 0.000000000000000
4.449039936065674 -2.546751976013184 0.373760223388672 0.000000000000000
4.449083805084229 -11.496597290039062 0.116186946630478 0.000000000000000
4.450259685516357 -9.912454605102539 0.813175499439240 0.000000000000000
4.452017307281494 -11.356706619262695 0.489928930997849 0.000000000000000
4.453668117523193 -7.883382797241211 0.625208497047424 0.000000000000000
4.454700469970703 -11.875446319580078 0.338774234056473 0.000000000000000
4.455532550811768 -6.896700859069824 0.693804681301117 0.000000000000000
4.456550121307373 -7.970462322235107 0.718685388565063 0.000000000000000
4.459876060485840 -3.708976745605469 0.422916233539581 0.000000000000000
4.460679054260254 -8.770461082458496 0.935318827629089 0.000000000000000
4.460822105407715 -10.675449371337891 0.776589691638947 0.000000000000000
4.463552951812744 -4.329715251922607 0.563739240169525 0.000000000000000
4.463796138763428 -8.399067878723145 0.290604531764984 0.000000000000000
4.465406417846680 -12.130737304687500 0.196295917034149 0.000000000000000
4.465645313262939 -9.480956077575684 0.501557469367981 0.000000000000000
4.466135501861572 -3.258075952529907 0.554715216159821 0.000000000000000
4.468418598175049 -7.369815826416016 0.661655068397522 0.000000000000000
4.468677043914795 -1.982951641082764 0.384763449430466 0.000000000000000
4.471028804779053 -11.839731216430664 0.070684075355530 0.000000000000000
4.471410751342773 -6.906990051269531 0.679356515407562 0.000000000000000
4.473111629486084 -4.621376991271973 0.560432493686676 0.000000000000000
4.474485397338867 -3.245895385742188 0.944888472557068 0.000000000000000
4.474618911743164 -11.760347366333008 0.796055138111115 0.000000000000000
4.474879741668701 -8.636974334716797 0.746773123741150 0.000000000000000
4.476145267486572 -11.370339393615723 0.631852030754089 0.000000000000000
4.476515293121338 -9.481276512145996 0.562337756156921 0.000000000000000
4.477779865264893 -10.047344207763672 0.019198613241315 0.000000000000000
4.478910446166992 -11.410653114318848 0.209687590599060 0.000000000000000
4.479248523712158 -2.282094001770020 0.859295904636383 0.000000000000000
4.480296611785889 -3.716840744018555 0.278600543737411 0.000000000000000
4.480902194976807 -8.204238891601562 0.609433412551880 0.000000000000000
4.480924129486084 -11.988605499267578 0.489437311887741 0.000000000000000
4.481791973114014 -4.504376411437988 0.353030055761337 0.000000000000000
4.482242584228516 -11.537390708923340 0.401952743530273 0.000000000000000
4.483457088470459 -13.662221908569336 1.187228202819824 0.000000000000000
4.483846664428711 -11.523047447204590 0.425302565097809 0.000000000000000
4.486645221710205 -4.375430107116699 1.679218053817749 0.000000000000000
4.486911773681641 -9.336455345153809 1.268212795257568 0.000000000000000
4.488978385925293 -12.515203475952148 0.048732277005911 0.000000000000000
4.489616870880127 -8.397014617919922 1.627607583999634 0.000000000000000
4.490031242370605 -9.584319114685059 0.038792300969362 0.000000000000000
4.490295886993408 -13.760844230651855 1.644091844558716 0.000000000000000
4.491046905517578 -2.715805053710938 0.498887151479721 0.000000000000000
4.494226932525635 -13.383676528930664 1.279879450798035 0.000000000000000
4.495222091674805 -8.772349357604980 1.684893846511841 0.000000000000000
4.495326995849609 -6.888457298278809 0.488684564828873 0.000000000000000
4.496597290039062 -9.337401390075684 0.077780224382877 0.000000000000000
4.498435497283936 -9.357922554016113 0.877359747886658 0.000000000000000
4.498465061187744 -13.611662864685059 0.962231874465942 0.000000000000000
4.498610019683838 -10.549905776977539 0.262270808219910 0.000000000000000
4.501029014587402 -8.914774894714355 0.766674876213074 0.000000000000000
4.501843929290771 -10.427104949951172 1.029609560966492 0.000000000000000
4.503944873809814 -3.348829269409180 0.290209889411926 0.000000000000000
4.503996372222900 -5.970931053161621 0.502010703086853 0.000000000000000
4.505815982818604 -7.349367618560791 0.781506478786469 0.000000000000000
4.506431102752686 -3.861932754516602 0.501492798328400 0.000000000000000
4.507706165313721 -4.835275650024414 0.533033072948456 0.000000000000000
4.508553028106689 -8.676371574401855 0.204816877841949 0.000000000000000
4.508700847625732 -10.910809516906738 0.951936602592468 0.000000000000000
4.510959148406982 -4.345240592956543 0.456656426191330 0.000000000000000
4.511420249938965 -2.838574171066284 0.483205050230026 0.000000000000000
4.513235569000244 -3.126394510269165 1.471127629280090 0.000000000000000
4.515039443969727 -8.249624252319336 0.468176454305649 0.000000000000000
4.515150547027588 -13.184667587280273 0.318693816661835 0.000000000000000
4.516111373901367 -1.666439533233643 0.419456303119659 0.000000000000000
4.516509532928467 -4.108410358428955 0.280455499887466 1.000000000000000
4.522031307220459 -5.397176742553711 0.309887319803238 0.000000000000000
4.522119045257568 -4.384074687957764 0.471367150545120 0.000000000000000
4.522788524627686 -7.467718601226807 0.552339017391205 0.000000000000000
4.523826122283936 -10.216296195983887 0.255503743886948 0.000000000000000
4.524520874023438 -3.763538122177124 0.417726427316666 0.000000000000000
4.524843692779541 -1.938602685928345 1.023910880088806 0.000000000000000
4.527995586395264 -7.315446853637695 0.749673962593079 0.000000000000000
4.529954433441162 -5.097907543182373 0.470904082059860 0.000000000000000
4.531180858612061 -8.974494934082031 1.008790850639343 0.000000000000000
4.531381607055664 -10.241081237792969 0.751676678657532 0.000000000000000
4.533257961273193 -11.216823577880859 0.485915780067444 0.000000000000000
4.534879207611084 -4.566808700561523 0.394764304161072 0.000000000000000
4.536769390106201 -3.237360715866089 0.170282766222954 0.000000000000000
4.536908149719238 -10.450133323669434 0.413761615753174 0.000000000000000
4.537367820739746 -9.494873046875000 0.119388438761234 0.000000000000000
4.539649486541748 -9.337419509887695 1.271129250526428 0.000000000000000
4.540508747100830 -7.438254833221436 0.551328778266907 0.000000000000000
4.543262004852295 -10.260189056396484 1.493225574493408 0.000000000000000
4.543328762054443 -8.310951232910156 0.071085900068283 0.000000000000000
4.546967983245850 -8.433348655700684 1.637716889381409 0.000000000000000
4.547968387603760 -11.487443923950195 0.567518591880798 0.000000000000000
4.548297882080078 -10.770473480224609 0.447096884250641 0.000000000000000
4.548986911773682 -7.885748863220215 0.278144806623459 0.000000000000000
4.551400661468506 -11.734817504882812 0.191133424639702 0.000000000000000
4.551526546478271 -13.399139404296875 0.160545915365219 0.000000000000000
4.553320884704590 -8.831729888916016 1.322269678115845 0.000000000000000
4.553666591644287 -8.777036666870117 0.017257807776332 0.000000000000000
4.553881645202637 -2.524673461914062 0.369581699371338 0.000000000000000
4.555014133453369 -8.130900382995605 0.052052434533834 0.000000000000000
4.555867671966553 -14.068288803100586 0.110981665551662 0.000000000000000
4.555967330932617 -10.788635253906250 0.628104507923126 0.000000000000000
4.556376934051514 -11.337773323059082 0.467273563146591 0.000000000000000
4.558947563171387 -2.843438863754272 1.117586016654968 0.000000000000000
4.559468746185303 -2.416050434112549 0.406104296445847 0.000000000000000
4.560462474822998 -8.146958351135254 0.716767489910126 0.000000000000000
4.561666488647461 -2.040627241134644 0.383643597364426 0.000000000000000
4.563220500946045 -9.135626792907715 1.745550155639648 0.000000000000000
4.564129352569580 -8.743006706237793 0.859399259090424 0.000000000000000
4.564577579498291 -2.782075881958008 1.111883997917175 0.000000000000000
4.565845012664795 -12.210605621337891 0.849876046180725 0.000000000000000
4.567771434783936 -7.854837894439697 0.417379438877106 0.000000000000000
4.567944049835205 -11.214658737182617 0.509646415710449 0.000000000000000
4.568738937377930 -10.221199989318848 0.428143024444580 0.000000000000000
4.570827007293701 -1.592803835868835 1.006804943084717 0.000000000000000
4.571647644042969 -4.246899127960205 1.671971201896667 0.000000000000000
4.571963310241699 -1.977707505226135 1.036129355430603 0.000000000000000
4.575121879577637 -7.110367774963379 0.649101674556732 0.000000000000000
4.575558185577393 -11.914141654968262 0.586240112781525 0.000000000000000
4.576323509216309 -8.320517539978027 0.016573637723923 0.000000000000000
4.580170154571533 -4.913005352020264 0.762909173965454 0.000000000000000
4.582787036895752 -9.283168792724609 1.377672076225281 0.000000000000000
4.584871292114258 -8.653470993041992 1.451349735260010 0.000000000000000
4.584909439086914 -2.211596250534058 0.510785281658173 0.000000000000000
4.588480472564697 -13.093851089477539 0.904522001743317 0.000000000000000
4.589411735534668 -9.901517868041992 0.564308464527130 0.000000000000000
4.589877128601074 -13.189226150512695 1.327463746070862 0.000000000000000
4.593899726867676 -2.659884929656982 0.407525658607483 0.000000000000000
4.594077110290527 -2.378495931625366 1.076043128967285 0.000000000000000
4.595162391662598 -13.758224487304688 1.113576769828796 0.000000000000000
4.596505165100098 -5.302982807159424 1.459704160690308 0.000000000000000
4.596632003784180 -14.112606048583984 0.939001560211182 0.000000000000000
4.597879409790039 -10.053761482238770 1.638412594795227 0.000000000000000
4.598181724548340 -9.565422058105469 0.242701098322868 0.000000000000000
4.600294113159180 -9.936810493469238 0.208339273929596 0.000000000000000
4.601272583007812 -2.764067888259888 0.467721551656723 0.000000000000000
4.604995727539062 -5.022654056549072 0.593766748905182 0.000000000000000
4.606853008270264 -3.215099811553955 1.505291700363159 0.000000000000000
4.606873989105225 -8.884523391723633 0.286538362503052 0.000000000000000
4.607224941253662 -1.787209749221802 0.469741255044937 0.000000000000000
4.610154151916504 -10.745414733886719 0.739735245704651 0.000000000000000
