# This PCD file was generated using the MATLAB® pcwrite function
# from Computer Vision Toolbox®.
# .PCD v.7 - Point Cloud Data file format
VERSION .7
FIELDS x y z intensity
SIZE 8 8 8 8
TYPE F F F F
COUNT 1 1 1 1
WIDTH 641
HEIGHT 1
VIEWPOINT 0 0 0 1 0 0 0
POINTS 641
DATA ascii
-7.041801452636719 -12.420027732849121 1.747985124588013 0.000000000000000
-7.037329196929932 -7.558240890502930 0.872644603252411 0.000000000000000
-7.032063961029053 -5.831502437591553 0.613181650638580 0.000000000000000
-7.031919956207275 -11.857717514038086 0.235821589827538 0.000000000000000
-7.030732631683350 -6.169696807861328 0.195937290787697 0.000000000000000
-7.019983768463135 -7.860811233520508 1.402471303939819 0.000000000000000
-7.018386840820312 -7.606287956237793 0.938241124153137 0.000000000000000
-7.017086029052734 -7.550228595733643 0.097149170935154 0.000000000000000
-7.013586997985840 5.952583789825439 1.913418173789978 1.000000000000000
-7.005211353302002 -7.057245254516602 0.801800012588501 0.000000000000000
-6.998777866363525 -12.040570259094238 1.262544631958008 0.000000000000000
-6.976546287536621 -13.054396629333496 1.485230922698975 0.000000000000000
-6.975793361663818 -7.756657600402832 1.388224959373474 0.000000000000000
-6.970616817474365 -11.184838294982910 1.088155388832092 0.000000000000000
-6.970386505126953 -12.132162094116211 0.669635593891144 0.000000000000000
-6.966966152191162 -12.761356353759766 0.975893795490265 0.000000000000000
-6.958769798278809 -7.810901641845703 0.948353111743927 0.000000000000000
-6.946767330169678 -8.134194374084473 1.828446865081787 0.000000000000000
-6.937764167785645 -7.466447830200195 1.742180228233337 0.000000000000000
-6.932698726654053 -11.559875488281250 1.650280714035034 0.000000000000000
-6.925493240356445 5.365769863128662 1.497533679008484 1.000000000000000
-6.923664093017578 -6.854411602020264 1.665349125862122 0.000000000000000
-6.917122364044189 -5.747193813323975 0.516967177391052 0.000000000000000
-6.914592266082764 -5.786010265350342 0.657352566719055 0.000000000000000
-6.906091690063477 -6.104411125183105 0.352480441331863 0.000000000000000
-6.905170917510986 -11.988118171691895 0.608870506286621 0.000000000000000
-6.903284549713135 -11.733963012695312 0.232879802584648 0.000000000000000
-6.902400970458984 -12.674635887145996 1.766942739486694 0.000000000000000
-6.899832725524902 -6.185215950012207 1.233098387718201 0.000000000000000
-6.891649723052979 -10.472405433654785 1.136506915092468 0.000000000000000
-6.886607646942139 -9.706895828247070 0.661237955093384 0.000000000000000
-6.883618831634521 -5.669981002807617 0.323895514011383 0.000000000000000
-6.883349418640137 -7.203517436981201 1.703090786933899 0.000000000000000
-6.883010387420654 -11.699501991271973 1.068299055099487 0.000000000000000
-6.881243705749512 -6.041917800903320 0.350187659263611 1.000000000000000
-6.874959945678711 -12.881609916687012 1.555284976959229 0.000000000000000
-6.874680995941162 -5.611048698425293 0.424688965082169 0.000000000000000
-6.871343135833740 -13.274306297302246 0.859239935874939 0.000000000000000
-6.867532253265381 -10.655508995056152 1.046682953834534 0.000000000000000
-6.867035865783691 -9.608064651489258 0.656134426593781 0.000000000000000
-6.861668109893799 -11.957908630371094 0.898797214031219 0.000000000000000
-6.861005783081055 -7.380223274230957 1.233700275421143 0.000000000000000
-6.859727382659912 -6.227006435394287 0.461215436458588 0.000000000000000
-6.857905864715576 -7.361413478851318 1.231755971908569 0.000000000000000
-6.843886375427246 -11.881721496582031 0.814632415771484 0.000000000000000
-6.836864948272705 -12.793027877807617 1.113576769828796 0.000000000000000
-6.831094741821289 -5.621517181396484 0.304298251867294 0.000000000000000
-6.830638408660889 -6.288140296936035 1.054530143737793 0.000000000000000
-6.829608440399170 -11.550081253051758 0.513129651546478 0.000000000000000
-6.821460723876953 -6.997050762176514 0.928884029388428 0.000000000000000
-6.814903736114502 -2.816694736480713 0.296172618865967 1.000000000000000
-6.809167861938477 -5.690117359161377 0.202921539545059 0.000000000000000
-6.804203987121582 -11.787126541137695 0.520466625690460 0.000000000000000
-6.799372196197510 -6.861842155456543 0.480905145406723 0.000000000000000
-6.797513961791992 -11.788842201232910 1.233653545379639 0.000000000000000
-6.792961597442627 -6.919330596923828 2.016868114471436 1.000000000000000
-6.788196563720703 -5.761293888092041 0.807147443294525 0.000000000000000
-6.784000873565674 -11.483007431030273 0.535679161548615 0.000000000000000
-6.779141426086426 -2.805102586746216 0.224152699112892 1.000000000000000
-6.776938438415527 -12.454601287841797 0.842387795448303 0.000000000000000
-6.770177841186523 -12.866898536682129 1.088114857673645 0.000000000000000
-6.765898227691650 -11.361618995666504 0.734684109687805 0.000000000000000
-6.751470088958740 -5.966476440429688 0.327234655618668 0.000000000000000
-6.747859001159668 -5.611338615417480 1.300643920898438 0.000000000000000
-6.744144439697266 -11.318797111511230 0.655924379825592 0.000000000000000
-6.740639209747314 -5.846753597259521 0.667794942855835 0.000000000000000
-6.739734172821045 -5.764013767242432 0.526877880096436 0.000000000000000
-6.736553668975830 -5.593987464904785 1.297711849212646 0.000000000000000
-6.735822677612305 -10.697957992553711 0.872922301292419 0.000000000000000
-6.728913307189941 -8.697407722473145 1.879667520523071 0.000000000000000
-6.724004745483398 -12.316325187683105 1.158592462539673 0.000000000000000
-6.720591545104980 -11.712052345275879 0.672232985496521 0.000000000000000
-6.720525264739990 -2.769450902938843 0.403843283653259 1.000000000000000
-6.716034889221191 -7.181433677673340 0.735858142375946 0.000000000000000
-6.715875148773193 -7.651521682739258 1.508817315101624 0.000000000000000
-6.712306976318359 -11.966577529907227 0.868033468723297 0.000000000000000
-6.708360195159912 -5.566225528717041 0.736578047275543 0.000000000000000
-6.707421302795410 -6.020762443542480 1.540666937828064 0.000000000000000
-6.707280635833740 -6.579272747039795 0.485817521810532 0.000000000000000
-6.706398487091064 -11.710979461669922 0.671835243701935 0.000000000000000
-6.705803394317627 -5.762609004974365 0.202189967036247 0.000000000000000
-6.703762054443359 -11.777770996093750 0.466141492128372 0.000000000000000
-6.701472759246826 -11.263268470764160 1.604588031768799 0.000000000000000
-6.699476242065430 -5.715425014495850 0.319830477237701 0.000000000000000
-6.693099021911621 -5.750476360321045 0.592286944389343 0.000000000000000
-6.686355590820312 -5.587488651275635 0.333220899105072 0.000000000000000
-6.682258129119873 -6.065906524658203 0.588355660438538 0.000000000000000
-6.681050777435303 -12.353258132934570 1.868906378746033 0.000000000000000
-6.675580501556396 -6.373532772064209 0.211060345172882 0.000000000000000
-6.675475120544434 -6.119517803192139 0.660261273384094 0.000000000000000
-6.664129734039307 -12.019442558288574 0.948972344398499 0.000000000000000
-6.649262428283691 -8.421845436096191 2.231913805007935 0.000000000000000
-6.634614944458008 -11.310235023498535 0.299855649471283 0.000000000000000
-6.627779960632324 -8.516213417053223 1.025784611701965 0.000000000000000
-6.621127128601074 -5.943302631378174 0.511457800865173 0.000000000000000
-6.617707729339600 -6.134934425354004 0.033074613660574 0.000000000000000
-6.613605976104736 -5.652948379516602 0.788729250431061 0.000000000000000
-6.611750125885010 -5.358104705810547 0.407288372516632 0.000000000000000
-6.608871936798096 -7.221421718597412 1.450763344764709 0.000000000000000
-6.606985092163086 -5.560444355010986 0.596276402473450 0.000000000000000
-6.601253032684326 -5.477353572845459 0.196154445409775 0.000000000000000
-6.595044136047363 -12.093149185180664 1.833026766777039 0.000000000000000
-6.576622962951660 -7.755436420440674 1.738136649131775 0.000000000000000
-6.570931911468506 -5.970289707183838 0.322443723678589 0.000000000000000
-6.569456100463867 -10.514965057373047 0.856114089488983 0.000000000000000
-6.568039894104004 -5.929267883300781 0.747692406177521 0.000000000000000
-6.566523551940918 -11.941503524780273 1.813504099845886 0.000000000000000
-6.566474437713623 -2.368219614028931 0.401269376277924 0.000000000000000
-6.554719448089600 -6.211070537567139 0.327960520982742 0.000000000000000
-6.553920745849609 -6.443219184875488 1.570995092391968 0.000000000000000
-6.540571212768555 -11.202270507812500 1.020909905433655 0.000000000000000
-6.540566921234131 -11.788821220397949 0.904905140399933 0.000000000000000
-6.518416404724121 -6.168903350830078 0.308698415756226 0.000000000000000
-6.504321098327637 -5.802882194519043 0.517863273620605 0.000000000000000
-6.502368450164795 -6.712739467620850 0.847233951091766 0.000000000000000
-6.500183582305908 -11.513405799865723 0.251559406518936 0.000000000000000
-6.498745441436768 -8.997815132141113 0.531195819377899 0.000000000000000
-6.490822315216064 -6.165592670440674 1.862100243568420 0.000000000000000
-6.485683917999268 -5.416722774505615 0.177005350589752 0.000000000000000
-6.477592945098877 -6.537562370300293 0.777667462825775 0.000000000000000
-6.474911212921143 -12.690207481384277 0.517419815063477 0.000000000000000
-6.473090171813965 -12.572590827941895 0.731204986572266 0.000000000000000
-6.465800285339355 6.310150146484375 1.879206299781799 1.000000000000000
-6.462361812591553 -5.296545505523682 0.689889192581177 0.000000000000000
-6.455902576446533 -11.160349845886230 1.464424490928650 0.000000000000000
-6.454144954681396 -7.347115516662598 0.110948212444782 0.000000000000000
-6.453441143035889 -5.788717269897461 0.431581526994705 0.000000000000000
-6.446355342864990 -11.820503234863281 1.137704968452454 0.000000000000000
-6.443531513214111 -6.066557407379150 1.177695989608765 0.000000000000000
-6.438897132873535 -5.894793033599854 0.199629440903664 0.000000000000000
-6.437142848968506 -11.234427452087402 1.069064855575562 0.000000000000000
-6.433035850524902 -10.744135856628418 0.575227379798889 0.000000000000000
-6.432005405426025 -6.829773426055908 0.891789197921753 0.000000000000000
-6.430013656616211 -10.644867897033691 1.843067526817322 0.000000000000000
-6.427322864532471 -5.021393299102783 2.185467958450317 0.000000000000000
-6.424723625183105 -5.799889564514160 0.597654163837433 0.000000000000000
-6.419841766357422 -5.754938125610352 0.329705268144608 1.000000000000000
-6.412901401519775 -5.459930419921875 0.403081625699997 0.000000000000000
-6.412721633911133 -8.009540557861328 2.134165763854980 0.000000000000000
-6.405910015106201 -10.330868721008301 0.628547132015228 0.000000000000000
-6.402786731719971 -11.104270935058594 0.934545934200287 0.000000000000000
-6.398452758789062 -5.824593067169189 0.784395635128021 0.000000000000000
-6.390470027923584 -8.913292884826660 0.524885714054108 0.000000000000000
-6.384900093078613 -5.842078685760498 0.314313679933548 0.000000000000000
-6.384315490722656 -5.659499645233154 0.743423759937286 0.000000000000000
-6.383997917175293 -5.182217121124268 0.298634260892868 0.000000000000000
-6.367471694946289 -5.964414596557617 0.518337786197662 0.000000000000000
-6.362825393676758 -11.088569641113281 0.439740568399429 0.000000000000000
-6.360913753509521 -6.645627975463867 0.777330696582794 0.000000000000000
-6.360736846923828 -6.942011833190918 1.609410524368286 0.000000000000000
-6.339046478271484 -9.607104301452637 1.307328343391418 0.000000000000000
-6.334447860717773 -7.106133460998535 0.089722558856010 0.000000000000000
-6.332804203033447 -5.028683662414551 0.153857558965683 0.000000000000000
-6.332697391510010 -7.467789173126221 0.111084349453449 0.000000000000000
-6.331117630004883 -8.242528915405273 0.942213773727417 0.000000000000000
-6.328137397766113 -11.500380516052246 0.678740024566650 0.000000000000000
-6.321363925933838 -5.168084621429443 0.422198593616486 0.000000000000000
-6.319622993469238 -10.568105697631836 0.399875462055206 0.000000000000000
-6.317121982574463 -10.541774749755859 0.919748067855835 0.000000000000000
-6.316699981689453 -6.166792869567871 0.800285756587982 0.000000000000000
-6.316498756408691 -2.410647630691528 0.310556709766388 1.000000000000000
-6.310899257659912 -8.714321136474609 1.022756576538086 0.000000000000000
-6.309049606323242 -5.703066349029541 1.453726410865784 0.000000000000000
-6.308783054351807 -5.668103218078613 0.503866970539093 0.000000000000000
-6.303637504577637 5.312294960021973 1.714663624763489 1.000000000000000
-6.303314208984375 -10.527482032775879 0.374890834093094 0.000000000000000
-6.291197776794434 -8.563803672790527 0.795264124870300 0.000000000000000
-6.279542922973633 -10.814504623413086 1.032529711723328 0.000000000000000
-6.268542766571045 -2.738919973373413 1.169316411018372 0.000000000000000
-6.264677524566650 -8.590390205383301 1.010643959045410 0.000000000000000
-6.264223575592041 -2.740156650543213 1.013306021690369 0.000000000000000
-6.264105319976807 -5.295641422271729 0.392564833164215 0.000000000000000
-6.262516975402832 -5.742159843444824 1.040235877037048 0.000000000000000
-6.250422000885010 7.820800304412842 1.137140870094299 1.000000000000000
-6.247507095336914 -11.361358642578125 1.095605134963989 0.000000000000000
-6.245555400848389 -10.683279991149902 0.568436264991760 0.000000000000000
-6.243336677551270 7.831542015075684 1.137592434883118 1.000000000000000
-6.236315727233887 -5.295896053314209 0.486075073480606 0.000000000000000
-6.234292030334473 -13.108121871948242 0.778489649295807 0.000000000000000
-6.223725795745850 7.273665904998779 0.771901249885559 1.000000000000000
-6.219099044799805 -9.388199806213379 1.070449829101562 0.000000000000000
-6.215580940246582 -5.811150550842285 1.132318854331970 0.000000000000000
-6.213556766510010 -6.639020919799805 0.645422697067261 0.000000000000000
-6.211895465850830 -4.838615417480469 1.166943907737732 0.000000000000000
-6.210941314697266 -4.846589088439941 0.686477720737457 0.000000000000000
-6.210382461547852 -5.653390884399414 1.435529589653015 0.000000000000000
-6.208882331848145 -4.836268424987793 0.685783267021179 1.000000000000000
-6.207678794860840 -4.866393089294434 0.059198226779699 0.000000000000000
-6.205084323883057 -10.344160079956055 1.093531250953674 0.000000000000000
-6.193921566009521 -12.870591163635254 0.903643786907196 0.000000000000000
-6.192836284637451 -5.871445178985596 0.326342493295670 0.000000000000000
-6.192201137542725 -2.710200548171997 1.405942797660828 0.000000000000000
-6.186881065368652 -13.252103805541992 1.009867429733276 0.000000000000000
-6.180829524993896 -10.233155250549316 0.710253179073334 0.000000000000000
-6.178747653961182 -7.342180252075195 0.274747133255005 0.000000000000000
-6.176648139953613 -6.739686489105225 0.507910609245300 1.000000000000000
-6.176134109497070 -5.099908351898193 0.599433362483978 0.000000000000000
-6.173837184906006 -3.786889314651489 0.276970773935318 0.000000000000000
-6.168989181518555 -5.082430839538574 0.551913917064667 0.000000000000000
-6.168594837188721 -6.778245925903320 0.650520443916321 0.000000000000000
-6.158802986145020 -5.566079616546631 1.230275392532349 0.000000000000000
-6.155555725097656 -12.858001708984375 1.177024722099304 0.000000000000000
-6.152032375335693 -11.807374954223633 0.611569166183472 0.000000000000000
-6.146709918975830 -9.139686584472656 1.046981692314148 0.000000000000000
-6.146661281585693 -5.584801197052002 0.429427981376648 0.000000000000000
-6.143877029418945 -4.691915035247803 1.607955336570740 0.000000000000000
-6.140461444854736 -8.052341461181641 0.918017327785492 0.000000000000000
-6.133719444274902 -11.816988945007324 0.893654048442841 0.000000000000000
-6.124409675598145 -6.049618721008301 0.445126205682755 0.000000000000000
-6.119713306427002 -7.807006359100342 2.063298463821411 0.000000000000000
-6.116049766540527 -9.339897155761719 1.268054246902466 0.000000000000000
-6.114778518676758 -4.811683177947998 0.780754625797272 0.000000000000000
-6.105995178222656 -9.924380302429199 0.423198312520981 0.000000000000000
-6.103762149810791 -7.356720447540283 0.567917883396149 0.000000000000000
-6.099875926971436 -2.617939472198486 1.380691170692444 0.000000000000000
-6.099284648895264 -6.381645202636719 0.083200708031654 0.000000000000000
-6.095209598541260 -5.690241336822510 0.158651337027550 0.000000000000000
-6.094340324401855 -6.651270389556885 0.518574118614197 0.000000000000000
-6.091798782348633 -12.719124794006348 1.726597070693970 0.000000000000000
-6.081723213195801 9.624799728393555 0.940039813518524 1.000000000000000
-6.080703258514404 -5.681868553161621 0.174324706196785 0.000000000000000
-6.076741218566895 -2.555924415588379 1.126857042312622 0.000000000000000
-6.075425624847412 -5.523174285888672 0.693804681301117 0.000000000000000
-6.072954654693604 -5.304875373840332 0.766499638557434 0.000000000000000
-6.071819305419922 -11.434834480285645 1.173704385757446 0.000000000000000
-6.064227104187012 -6.570819854736328 0.634661018848419 0.000000000000000
-6.062915325164795 9.669610977172852 0.942343831062317 1.000000000000000
-6.062232971191406 -2.558170795440674 1.763075351715088 0.000000000000000
-6.060260772705078 -5.525251865386963 0.714603543281555 0.000000000000000
-6.058644771575928 -2.526439189910889 0.972844123840332 0.000000000000000
-6.042438030242920 -5.685750484466553 0.429014921188354 0.000000000000000
-6.042103290557861 -9.510558128356934 1.279791355133057 0.000000000000000
-6.041693687438965 -6.547781467437744 0.512146472930908 0.000000000000000
-6.041364669799805 -7.438671588897705 1.993245601654053 0.000000000000000
-6.022760391235352 -10.879673957824707 0.714847147464752 0.000000000000000
-6.020065307617188 -10.525251388549805 0.510319232940674 0.000000000000000
-6.009925842285156 -7.399960994720459 0.906172871589661 0.000000000000000
-6.005960464477539 -9.951877593994141 0.533930003643036 0.000000000000000
-6.005369663238525 -7.129586219787598 0.845067143440247 0.000000000000000
-6.002243041992188 -5.348929882049561 0.570656776428223 0.000000000000000
-6.001766204833984 -4.913438796997070 0.550549268722534 0.000000000000000
-5.997081756591797 -10.727878570556641 0.659166932106018 0.000000000000000
-5.986335277557373 -5.557787418365479 0.564037859439850 0.000000000000000
-5.975988864898682 -11.049598693847656 0.867411434650421 0.000000000000000
-5.972253799438477 -10.020141601562500 0.266751736402512 0.000000000000000
-5.961440086364746 -6.509874820709229 1.836034178733826 0.000000000000000
-5.959057331085205 -12.648745536804199 1.181488752365112 0.000000000000000
-5.956451416015625 -6.461276054382324 1.827888607978821 0.000000000000000
-5.956186771392822 -11.777960777282715 0.504722654819489 0.000000000000000
-5.953924179077148 -10.614545822143555 0.957828700542450 0.000000000000000
-5.952774047851562 -6.728862285614014 0.378113925457001 0.000000000000000
-5.952324390411377 -5.565023422241211 0.562660098075867 0.000000000000000
-5.948588848114014 -3.662315607070923 1.871779441833496 0.000000000000000
-5.936515331268311 -7.685389995574951 0.846204459667206 0.000000000000000
-5.934164524078369 -6.802941799163818 0.102417230606079 0.000000000000000
-5.929250717163086 -6.749598503112793 0.378113925457001 0.000000000000000
-5.924787044525146 -7.243319034576416 0.889518082141876 0.000000000000000
-5.924575328826904 -10.863730430603027 0.663665652275085 0.000000000000000
-5.923941135406494 -12.874247550964355 0.678240299224854 0.000000000000000
-5.918449878692627 -11.507167816162109 0.644190132617950 0.000000000000000
-5.917531013488770 -12.742990493774414 0.240336894989014 0.000000000000000
-5.912313461303711 -12.502512931823730 0.236574143171310 0.000000000000000
-5.910154819488525 -9.094584465026855 1.231940269470215 0.000000000000000
-5.907486438751221 -5.370500564575195 0.059918686747551 0.000000000000000
-5.904426097869873 9.767823219299316 0.832161784172058 1.000000000000000
-5.901795387268066 8.013198852539062 1.130369544029236 1.000000000000000
-5.898557662963867 -12.634524345397949 0.104647569358349 0.000000000000000
-5.896571159362793 -7.312402725219727 0.892924785614014 0.000000000000000
-5.893533706665039 -12.177255630493164 0.309366196393967 0.000000000000000
-5.893430709838867 -4.924877166748047 1.022041678428650 0.000000000000000
-5.890996932983398 -5.479619979858398 0.602120041847229 0.000000000000000
-5.887447357177734 -5.571766376495361 0.403538644313812 0.000000000000000
-5.885509490966797 -11.066237449645996 0.672234654426575 0.000000000000000
-5.883317470550537 -12.828977584838867 0.539726138114929 0.000000000000000
-5.879293918609619 -5.356879234313965 0.595254004001617 0.000000000000000
-5.878420352935791 -10.767472267150879 0.634330630302429 0.000000000000000
-5.874157905578613 -4.381015777587891 1.086020112037659 0.000000000000000
-5.871235370635986 -6.549575805664062 1.303575873374939 0.000000000000000
-5.867391109466553 -4.760143756866455 0.609226584434509 0.000000000000000
-5.865476131439209 -4.664607524871826 0.517470955848694 0.000000000000000
-5.861522674560547 -7.531629085540771 1.985099911689758 0.000000000000000
-5.858481884002686 -2.372691869735718 1.314711213111877 0.000000000000000
-5.857810974121094 -11.676393508911133 0.474446654319763 0.000000000000000
-5.849364757537842 -4.469913959503174 0.182488307356834 0.000000000000000
-5.848886013031006 -10.132201194763184 0.627461791038513 0.000000000000000
-5.844551563262939 -6.429389953613281 0.825927019119263 0.000000000000000
-5.844117641448975 -9.489083290100098 1.265797257423401 0.000000000000000
-5.839303016662598 -4.851671695709229 0.553514122962952 0.000000000000000
-5.835424900054932 -12.165305137634277 0.308543145656586 0.000000000000000
-5.826707363128662 -12.589369773864746 0.317230641841888 0.000000000000000
-5.824819087982178 -13.096288681030273 1.299381017684937 0.000000000000000
-5.823923110961914 -9.921873092651367 0.949914216995239 0.000000000000000
-5.822357654571533 -11.707507133483887 0.474882185459137 0.000000000000000
-5.820944309234619 -5.536627769470215 0.199141234159470 0.000000000000000
-5.819288253784180 -10.633993148803711 0.580146908760071 0.000000000000000
-5.818077564239502 -12.115040779113770 1.645419836044312 0.000000000000000
-5.813912868499756 -9.754479408264160 0.609038531780243 0.000000000000000
-5.810976982116699 -12.814984321594238 1.722708344459534 0.000000000000000
-5.808928489685059 -12.213759422302246 1.799785375595093 0.000000000000000
-5.806482315063477 -2.394683122634888 1.073614358901978 0.000000000000000
-5.801339149475098 -9.381446838378906 1.048495769500732 0.000000000000000
-5.794046878814697 -10.166703224182129 0.380011498928070 0.000000000000000
-5.792903900146484 -5.541239738464355 1.667418837547302 0.000000000000000
-5.790633678436279 -4.774448871612549 0.532707393169403 0.000000000000000
-5.789800643920898 9.836200714111328 0.832161784172058 1.000000000000000
-5.788771152496338 -13.057565689086914 1.521391510963440 0.000000000000000
-5.780197143554688 -4.802562713623047 1.284563183784485 0.000000000000000
-5.780019283294678 -10.475238800048828 0.756909012794495 0.000000000000000
-5.774907588958740 -11.419493675231934 0.292631328105927 0.000000000000000
-5.769357681274414 -10.319667816162109 0.770769357681274 0.000000000000000
-5.767631530761719 -7.453297615051270 0.821203708648682 0.000000000000000
-5.767369747161865 -9.831034660339355 0.567420303821564 0.000000000000000
-5.759422302246094 -5.547841548919678 1.663345932960510 0.000000000000000
-5.758464813232422 -10.283323287963867 0.224242433905602 0.000000000000000
-5.758279800415039 -6.058214187622070 0.706266224384308 0.000000000000000
-5.750802993774414 -7.779997825622559 2.592331647872925 0.000000000000000
-5.742718696594238 -13.024183273315430 0.790822803974152 0.000000000000000
-5.741706371307373 -2.183593750000000 1.050025939941406 0.000000000000000
-5.737739562988281 -2.231055736541748 1.280499339103699 0.000000000000000
-5.735712528228760 -10.837908744812012 0.965046942234039 0.000000000000000
-5.735010623931885 -11.439581871032715 0.292631328105927 0.000000000000000
-5.731064319610596 -9.749638557434082 0.389001280069351 0.000000000000000
-5.730573654174805 -2.134825468063354 1.045308232307434 0.000000000000000
-5.723557472229004 -11.034322738647461 1.654156327247620 0.000000000000000
-5.715975761413574 -4.673144340515137 0.268146574497223 0.000000000000000
-5.715859413146973 -10.747252464294434 1.619859576225281 0.000000000000000
-5.714250564575195 -5.376935958862305 0.164356127381325 0.000000000000000
-5.709361553192139 -2.174029350280762 0.905407667160034 0.000000000000000
-5.702147960662842 -10.284410476684570 0.449695378541946 0.000000000000000
-5.700754642486572 -9.265723228454590 0.898238301277161 0.000000000000000
-5.697725296020508 -10.135809898376465 0.690800726413727 0.000000000000000
-5.690768718719482 -11.272646903991699 0.094771191477776 0.000000000000000
-5.684699535369873 -12.501680374145508 1.681390523910522 0.000000000000000
-5.680061817169189 -9.928392410278320 0.635498464107513 0.000000000000000
-5.678297996520996 -11.041190147399902 1.049126982688904 0.000000000000000
-5.670397758483887 -11.004563331604004 0.950382828712463 0.000000000000000
-5.666061878204346 -10.197484970092773 0.221959680318832 0.000000000000000
-5.664162635803223 -10.389675140380859 0.589098811149597 0.000000000000000
-5.663661479949951 -10.147232055664062 0.668017089366913 0.000000000000000
-5.663263320922852 -11.589842796325684 0.468494325876236 0.000000000000000
-5.659246444702148 -5.477300643920898 0.059108167886734 0.000000000000000
-5.656119346618652 -11.481598854064941 1.703226923942566 0.000000000000000
-5.655922889709473 -12.060950279235840 0.535037100315094 0.000000000000000
-5.653983592987061 -4.489653110504150 0.248333796858788 0.000000000000000
-5.650989532470703 -11.864592552185059 0.250037550926208 0.000000000000000
-5.649442672729492 -11.151090621948242 0.622312724590302 0.000000000000000
-5.643165111541748 -11.709412574768066 0.597069203853607 0.000000000000000
-5.643007755279541 -2.150115966796875 1.256062388420105 0.000000000000000
-5.638601779937744 -11.345960617065430 0.874851107597351 0.000000000000000
-5.633446216583252 -12.471472740173340 0.444407045841217 0.000000000000000
-5.632936954498291 -9.846021652221680 0.805150032043457 0.000000000000000
-5.631972312927246 -9.073536872863770 1.212980389595032 0.000000000000000
-5.630768775939941 -8.588677406311035 1.093910574913025 0.000000000000000
-5.630067825317383 -11.320854187011719 0.848649919033051 0.000000000000000
-5.621899604797363 -12.630554199218750 0.981303095817566 0.000000000000000
-5.617417812347412 -11.204043388366699 0.817088365554810 0.000000000000000
-5.613903045654297 -10.607745170593262 0.389748752117157 0.000000000000000
-5.613123416900635 -4.863272190093994 1.100680232048035 0.000000000000000
-5.612262248992920 -12.309864044189453 0.439343690872192 0.000000000000000
-5.611526966094971 -12.607249259948730 1.202464461326599 0.000000000000000
-5.607906341552734 -10.507532119750977 0.570012509822845 0.000000000000000
-5.605005741119385 -4.624026775360107 0.658719003200531 0.000000000000000
-5.602423667907715 -11.323697090148926 0.507426440715790 0.000000000000000
-5.601543903350830 -11.165575981140137 0.838470399379730 0.000000000000000
-5.601350307464600 -11.622648239135742 0.394191175699234 0.000000000000000
-5.595200538635254 -10.002413749694824 0.946293652057648 0.000000000000000
-5.594646930694580 -11.066882133483887 0.617340564727783 0.000000000000000
-5.592013359069824 -11.444030761718750 0.266806453466415 0.000000000000000
-5.588428497314453 -11.628517150878906 0.245472043752670 0.000000000000000
-5.584537029266357 -10.037965774536133 0.549743711948395 0.000000000000000
-5.583637714385986 -11.137639999389648 0.476444751024246 0.000000000000000
-5.582737445831299 -5.337589263916016 0.057967431843281 0.000000000000000
-5.577098846435547 -12.617535591125488 0.952554404735565 0.000000000000000
-5.574361801147461 -5.046729087829590 0.655226826667786 0.000000000000000
-5.568781375885010 -10.848715782165527 1.006856441497803 0.000000000000000
-5.563894748687744 -3.892409086227417 0.591683387756348 0.000000000000000
-5.562971115112305 -10.525276184082031 0.409489512443542 0.000000000000000
-5.560886383056641 -8.968091964721680 0.708279728889465 0.000000000000000
-5.557268142700195 -11.880766868591309 0.451153457164764 0.000000000000000
-5.553917407989502 -11.811239242553711 0.725142776966095 0.000000000000000
-5.553439617156982 -10.232848167419434 0.557201087474823 0.000000000000000
-5.551825523376465 -11.913532257080078 0.098643697798252 0.000000000000000
-5.544469356536865 -10.780965805053711 0.837101578712463 0.000000000000000
-5.527542591094971 -9.778262138366699 1.196438193321228 0.000000000000000
-5.521883010864258 -10.209958076477051 0.443886935710907 0.000000000000000
-5.515168666839600 -12.844320297241211 0.911287724971771 0.000000000000000
-5.511275768280029 -4.714733123779297 1.074878454208374 1.000000000000000
-5.510727405548096 -11.020038604736328 0.518561065196991 0.000000000000000
-5.508859157562256 -3.368961095809937 0.184881940484047 0.000000000000000
-5.503905296325684 -5.074235916137695 0.171189323067665 0.000000000000000
-5.497726440429688 -10.476515769958496 0.931152641773224 0.000000000000000
-5.495085239410400 -9.855710029602051 0.670399308204651 0.000000000000000
-5.494581222534180 -11.244636535644531 0.647137045860291 0.000000000000000
-5.491763114929199 -10.325895309448242 0.447249710559845 0.000000000000000
-5.489253997802734 -12.266209602355957 1.057628750801086 0.000000000000000
-5.487542629241943 -12.180759429931641 0.074615933001041 0.000000000000000
-5.486398220062256 -11.116512298583984 0.426402568817139 0.000000000000000
-5.482965469360352 -9.764939308166504 0.449797123670578 0.000000000000000
-5.481115818023682 -10.090339660644531 3.076840877532959 0.000000000000000
-5.477096557617188 -11.816672325134277 0.447990864515305 0.000000000000000
-5.474712371826172 -9.793438911437988 0.429060131311417 0.000000000000000
-5.471634864807129 -11.831938743591309 0.648963391780853 0.000000000000000
-5.470708370208740 -10.817959785461426 0.650169551372528 0.000000000000000
-5.468470096588135 -8.774538040161133 0.773770511150360 0.000000000000000
-5.467500209808350 -10.838849067687988 0.885099112987518 0.000000000000000
-5.466922760009766 -9.002479553222656 1.121872663497925 0.000000000000000
-5.456671237945557 -10.138803482055664 0.373909533023834 0.000000000000000
-5.453340053558350 -9.316590309143066 0.891326308250427 0.000000000000000
-5.452873706817627 -4.524491786956787 0.942895472049713 0.000000000000000
-5.451931953430176 -12.285037994384766 1.031826734542847 0.000000000000000
-5.446944713592529 -9.211750984191895 1.424104571342468 0.000000000000000
-5.435668468475342 -4.510216236114502 0.487712264060974 1.000000000000000
-5.434886455535889 -11.024741172790527 0.635569989681244 0.000000000000000
-5.432936191558838 -3.530753850936890 1.736158132553101 1.000000000000000
-5.432010650634766 -10.975886344909668 1.228839993476868 0.000000000000000
-5.427345275878906 -7.396279811859131 0.920531690120697 0.000000000000000
-5.423008441925049 -11.268680572509766 0.598503530025482 0.000000000000000
-5.407184123992920 -10.756134033203125 0.947472095489502 0.000000000000000
-5.406527519226074 -9.474427223205566 0.501075565814972 0.000000000000000
-5.405706405639648 -10.857353210449219 0.977977395057678 0.000000000000000
-5.403014183044434 -10.147915840148926 0.594465494155884 0.000000000000000
-5.403013229370117 -10.482504844665527 0.405639350414276 0.000000000000000
-5.401051998138428 -9.902943611145020 0.735379576683044 0.000000000000000
-5.392064094543457 -12.278224945068359 0.229390710592270 0.000000000000000
-5.389136314392090 -10.037231445312500 0.413761615753174 0.000000000000000
-5.388715267181396 -9.766071319580078 0.362224847078323 0.000000000000000
-5.387930870056152 -8.641946792602539 1.246824741363525 0.000000000000000
-5.386299610137939 -10.361113548278809 0.581342279911041 0.000000000000000
-5.376763343811035 -9.990328788757324 0.717762947082520 0.000000000000000
-5.375003814697266 -10.815549850463867 1.607196211814880 0.000000000000000
-5.371638298034668 -10.384224891662598 0.874969720840454 0.000000000000000
-5.371124744415283 -4.425096035003662 0.588049948215485 0.000000000000000
-5.369093418121338 -5.941259384155273 0.568391203880310 0.000000000000000
-5.368056297302246 -11.309178352355957 1.532646536827087 0.000000000000000
-5.366610050201416 -10.791097640991211 0.623176693916321 0.000000000000000
-5.354486942291260 -8.954139709472656 1.111281037330627 0.000000000000000
-5.353842735290527 -10.867995262145996 0.836550533771515 0.000000000000000
-5.342306137084961 -9.399577140808105 0.725692093372345 0.000000000000000
-5.331133842468262 -6.194952487945557 0.712172925472260 1.000000000000000
-5.330562114715576 -9.732034683227539 1.113424062728882 0.000000000000000
-5.328728199005127 -10.104268074035645 0.965264201164246 0.000000000000000
-5.327470779418945 -10.572263717651367 1.754520535469055 0.000000000000000
-5.325044631958008 -11.368269920349121 0.600798130035400 0.000000000000000
-5.324920654296875 -3.512338638305664 1.709241032600403 0.000000000000000
-5.319346427917480 -11.380397796630859 1.537993550300598 0.000000000000000
-5.318422317504883 -3.914778709411621 0.978708148002625 0.000000000000000
-5.317246913909912 -10.910671234130859 1.485981822013855 0.000000000000000
-5.307937622070312 -5.224481582641602 0.648976683616638 0.000000000000000
-5.305242538452148 -10.447712898254395 0.899556994438171 0.000000000000000
-5.303351879119873 -5.149367332458496 0.644115447998047 0.000000000000000
-5.301137924194336 -12.107318878173828 0.708866894245148 0.000000000000000
-5.299932003021240 -9.847572326660156 0.535211324691772 0.000000000000000
-5.297296524047852 -10.130209922790527 0.437161386013031 0.000000000000000
-5.295999050140381 -9.787398338317871 0.725491225719452 0.000000000000000
-5.290454864501953 -5.949574470520020 0.197356984019279 0.000000000000000
-5.290159225463867 -10.671919822692871 1.079807996749878 0.000000000000000
-5.289272308349609 -10.028604507446289 0.564437031745911 0.000000000000000
-5.280956268310547 -5.367190361022949 1.001991271972656 0.000000000000000
-5.280951499938965 -9.179779052734375 2.837692260742188 0.000000000000000
-5.280573844909668 -9.586298942565918 0.882494390010834 0.000000000000000
-5.274422168731689 -11.182362556457520 0.449040263891220 0.000000000000000
-5.273357868194580 -5.124716281890869 0.465207368135452 0.000000000000000
-5.273098468780518 -10.729588508605957 0.987107634544373 0.000000000000000
-5.266597270965576 -9.180757522583008 0.649206042289734 0.000000000000000
-5.260963439941406 -12.610110282897949 1.818252801895142 0.000000000000000
-5.260504722595215 -4.949975013732910 0.262339383363724 0.000000000000000
-5.254729747772217 -5.853614807128906 0.685436010360718 0.000000000000000
-5.254529953002930 -11.074995040893555 1.012122631072998 0.000000000000000
-5.254387378692627 -13.588106155395508 0.669202029705048 0.000000000000000
-5.253172874450684 -12.225913047790527 1.098688006401062 0.000000000000000
-5.252727985382080 -10.294845581054688 0.242094382643700 0.000000000000000
-5.250861167907715 -9.096223831176758 0.725230872631073 0.000000000000000
-5.242466449737549 -5.967793464660645 0.720112740993500 0.000000000000000
-5.240693092346191 -5.879134178161621 0.437570869922638 0.000000000000000
-5.240014076232910 -10.478680610656738 0.312928289175034 0.000000000000000
-5.237923145294189 -9.927045822143555 0.731736421585083 0.000000000000000
-5.232665061950684 -4.895954608917236 0.508635044097900 0.000000000000000
-5.232619762420654 -10.045777320861816 0.454934030771255 0.000000000000000
-5.223042964935303 -5.398427963256836 0.654532372951508 0.000000000000000
-5.221487045288086 -10.685750007629395 0.798288106918335 0.000000000000000
-5.220715999603271 -4.037357330322266 0.062202613800764 0.000000000000000
-5.220135211944580 -10.164266586303711 0.634832739830017 0.000000000000000
-5.216345787048340 -9.355776786804199 1.018214225769043 0.000000000000000
-5.205764770507812 -4.381176471710205 0.905432939529419 1.000000000000000
-5.204030513763428 -10.542988777160645 0.902618765830994 0.000000000000000
-5.199680328369141 -10.254008293151855 0.727360010147095 0.000000000000000
-5.193019390106201 -11.123283386230469 1.633578300476074 0.000000000000000
-5.192060947418213 -10.204079627990723 1.037915706634521 0.000000000000000
-5.188892364501953 -10.867022514343262 0.483668416738510 0.000000000000000
-5.188629150390625 -11.814985275268555 1.015574574470520 0.000000000000000
-5.181285381317139 -3.833108901977539 0.544602990150452 0.000000000000000
-5.180824756622314 -10.305852890014648 0.552038252353668 0.000000000000000
-5.180675029754639 -10.696726799011230 0.797752320766449 0.000000000000000
-5.173336029052734 -5.118728160858154 0.516564786434174 0.000000000000000
-5.172940731048584 -11.310156822204590 1.127478480339050 0.000000000000000
-5.172799587249756 -9.312422752380371 0.817806959152222 0.000000000000000
-5.171069145202637 -3.853553056716919 0.544939756393433 0.000000000000000
-5.166201591491699 -9.987082481384277 0.668027043342590 0.000000000000000
-5.160618782043457 -4.043242454528809 0.036615423858166 0.000000000000000
-5.154378414154053 -10.630133628845215 0.224775090813637 0.000000000000000
-5.149454116821289 -11.760887145996094 1.708503365516663 0.000000000000000
-5.142384052276611 -10.617665290832520 0.247120559215546 0.000000000000000
-5.142281055450439 -5.900110721588135 1.159906983375549 0.000000000000000
-5.141790866851807 -5.849893569946289 0.552814900875092 0.000000000000000
-5.135764122009277 -10.839323043823242 0.897657394409180 0.000000000000000
-5.128929615020752 -10.086971282958984 0.672297120094299 0.000000000000000
-5.127562046051025 -11.143510818481445 1.306591868400574 0.000000000000000
-5.122465610504150 -10.872988700866699 0.459630876779556 0.000000000000000
-5.120759487152100 -4.894529342651367 0.066764138638973 0.000000000000000
-5.119345188140869 -10.384661674499512 0.777125418186188 0.000000000000000
-5.115782737731934 -10.846029281616211 0.620078325271606 0.000000000000000
-5.113695144653320 -12.307869911193848 1.266900897026062 0.000000000000000
-5.108911037445068 -2.898256778717041 0.511820018291473 0.000000000000000
-5.105275154113770 -10.541045188903809 0.425375968217850 0.000000000000000
-5.105149269104004 -9.680320739746094 0.418513238430023 0.000000000000000
-5.103023529052734 -10.626075744628906 0.973283588886261 0.000000000000000
-5.101156711578369 -8.991347312927246 0.937157750129700 0.000000000000000
-5.097123622894287 -5.450337409973145 0.709343373775482 0.000000000000000
-5.096580505371094 -10.364927291870117 0.641711473464966 0.000000000000000
-5.092774391174316 -10.522721290588379 0.987829625606537 0.000000000000000
-5.087371349334717 -5.667182445526123 0.071778044104576 0.000000000000000
-5.085535526275635 -9.782562255859375 0.379238426685333 0.000000000000000
-5.083871841430664 -10.377934455871582 0.909497976303101 0.000000000000000
-5.083770275115967 -4.997900962829590 0.519773900508881 0.000000000000000
-5.079655647277832 -5.823330879211426 0.563403487205505 0.000000000000000
-5.079319000244141 -5.620604515075684 0.071401059627533 0.000000000000000
-5.078918457031250 -12.055170059204102 1.105372309684753 0.000000000000000
-5.076663017272949 -10.921259880065918 1.208472490310669 0.000000000000000
-5.073429584503174 -10.903844833374023 0.900045573711395 0.000000000000000
-5.071277141571045 -11.160923004150391 0.468802094459534 0.000000000000000
-5.069861888885498 -11.359344482421875 0.643212497234344 0.000000000000000
-5.066846847534180 -6.063321113586426 1.171048641204834 0.000000000000000
-5.065984725952148 -8.408263206481934 1.045612454414368 0.000000000000000
-5.065758705139160 -10.219233512878418 0.480043202638626 0.000000000000000
-5.064710617065430 -10.012523651123047 0.407518893480301 0.000000000000000
-5.063755989074707 -5.640875816345215 0.421150863170624 0.000000000000000
-5.059327602386475 -10.341990470886230 0.396014004945755 0.000000000000000
-5.058406829833984 -10.010469436645508 0.041108697652817 0.000000000000000
-5.054519176483154 -9.130617141723633 0.760900199413300 0.000000000000000
-5.046444892883301 -11.941374778747559 1.020282149314880 0.000000000000000
-5.042644500732422 -9.391893386840820 0.715512633323669 0.000000000000000
-5.039894580841064 -5.432881355285645 1.985659837722778 0.000000000000000
-5.039706230163574 -10.941510200500488 0.368050217628479 0.000000000000000
-5.039277076721191 -10.716779708862305 0.475642025470734 0.000000000000000
-5.037611484527588 -11.182042121887207 0.823201119899750 0.000000000000000
-5.034049510955811 -10.829586982727051 0.364874184131622 0.000000000000000
-5.027599334716797 -12.050754547119141 1.103351593017578 0.000000000000000
-5.026884078979492 -12.413278579711914 0.306256979703903 0.000000000000000
-5.023534774780273 -9.379071235656738 0.927109479904175 0.000000000000000
-5.022662162780762 -11.349788665771484 0.952832341194153 0.000000000000000
-5.022370338439941 -10.851493835449219 1.010395169258118 0.000000000000000
-5.018292903900146 -2.848701953887939 0.331712961196899 0.000000000000000
-5.017122745513916 -9.839867591857910 0.252577424049377 0.000000000000000
-5.012194633483887 -5.824334621429443 1.138796448707581 0.000000000000000
-5.011825561523438 -5.875565052032471 0.672935664653778 0.000000000000000
-5.011079788208008 -8.978041648864746 0.932101786136627 0.000000000000000
-5.008438110351562 -5.390100002288818 0.667025208473206 0.000000000000000
-5.006173610687256 -11.508469581604004 0.214681804180145 0.000000000000000
-5.001738548278809 5.597873210906982 0.128412276506424 1.000000000000000
-4.997061252593994 -4.856207370758057 0.333479315042496 0.000000000000000
-4.995450496673584 -10.230406761169434 0.786126017570496 0.000000000000000
-4.995360374450684 -10.522103309631348 0.087416447699070 0.000000000000000
-4.994255542755127 -10.697537422180176 0.997596800327301 0.000000000000000
-4.993046760559082 -13.222090721130371 0.268908321857452 0.000000000000000
-4.992043018341064 -11.293913841247559 1.043401360511780 0.000000000000000
-4.990873813629150 -11.925811767578125 1.017457604408264 0.000000000000000
-4.988114356994629 -11.146369934082031 0.772567510604858 0.000000000000000
-4.987686157226562 -10.479483604431152 0.779000639915466 0.000000000000000
-4.987321853637695 -9.367164611816406 0.712298035621643 0.000000000000000
-4.985834598541260 5.582623004913330 0.214302763342857 1.000000000000000
-4.983759403228760 -11.033179283142090 0.952807366847992 0.000000000000000
-4.974189281463623 -10.939140319824219 0.806592464447021 0.000000000000000
-4.971023082733154 -11.146250724792480 1.031276583671570 0.000000000000000
-4.968141555786133 -8.960554122924805 1.363425731658936 0.000000000000000
-4.967594623565674 -11.510289192199707 1.092391967773438 0.000000000000000
-4.961745738983154 -6.574426174163818 0.235824644565582 0.000000000000000
-4.954730510711670 -6.801862716674805 2.254831790924072 0.000000000000000
-4.947507858276367 -12.217267990112305 1.113792300224304 0.000000000000000
-4.946792125701904 -11.481356620788574 0.598312377929688 0.000000000000000
-4.927925586700439 -5.689353942871094 1.286584973335266 1.000000000000000
-4.926942348480225 -10.608368873596191 0.514778733253479 0.000000000000000
-4.925817966461182 -10.832762718200684 0.615327596664429 0.000000000000000
-4.924973964691162 -4.216592311859131 0.650562345981598 0.000000000000000
-4.923881053924561 -11.350144386291504 0.830433905124664 0.000000000000000
-4.922985553741455 -10.798013687133789 0.933977127075195 0.000000000000000
-4.921779155731201 -11.658296585083008 1.437338948249817 0.000000000000000
-4.903440952301025 -5.592484951019287 0.184371680021286 0.000000000000000
-4.896531105041504 -5.649919509887695 0.415381669998169 0.000000000000000
-4.891910076141357 -5.684559822082520 0.070684790611267 0.000000000000000
-4.886162281036377 -10.695969581604004 0.336679726839066 1.000000000000000
-4.885779380798340 -11.686710357666016 1.021378755569458 0.000000000000000
-4.885154247283936 -10.583112716674805 1.056694984436035 0.000000000000000
-4.883398056030273 -5.838823318481445 0.554968476295471 0.000000000000000
-4.882062435150146 -5.223661422729492 1.059631824493408 0.000000000000000
-4.881325721740723 -8.534322738647461 0.891293048858643 0.000000000000000
-4.876338005065918 -12.016189575195312 0.645582318305969 0.000000000000000
-4.873680591583252 -6.179794788360596 2.108857870101929 0.000000000000000
-4.873520851135254 -8.952790260314941 0.841625273227692 0.000000000000000
-4.871685028076172 -5.288463592529297 1.926648974418640 0.000000000000000
-4.869787693023682 -10.717483520507812 0.812853693962097 0.000000000000000
-4.866122245788574 -10.162753105163574 0.084564603865147 0.000000000000000
-4.855418205261230 -10.518692970275879 0.844668984413147 0.000000000000000
-4.849579334259033 -10.903599739074707 0.502245604991913 0.000000000000000
-4.844316005706787 -10.604367256164551 2.424966335296631 0.000000000000000
-4.843886852264404 -8.352449417114258 2.587155342102051 0.000000000000000
-4.843064308166504 -9.834606170654297 0.545741796493530 0.000000000000000
-4.840989112854004 -13.095325469970703 0.265636384487152 0.000000000000000
-4.838247299194336 -10.176492691040039 0.734598875045776 0.000000000000000
-4.838019371032715 -11.409839630126953 1.123505830764771 0.000000000000000
-4.837872505187988 -8.352822303771973 0.610679388046265 0.000000000000000
-4.836990833282471 -11.369849205017090 1.044075012207031 0.000000000000000
-4.835876941680908 -9.262778282165527 0.947269678115845 0.000000000000000
-4.835182666778564 -5.551666736602783 0.295691072940826 0.000000000000000
-4.834370136260986 -10.639535903930664 0.987492859363556 0.000000000000000
-4.826929569244385 -3.424238920211792 1.011610269546509 0.000000000000000
-4.825956821441650 8.003866195678711 1.144259452819824 0.000000000000000
-4.824949741363525 -9.072117805480957 0.868266224861145 0.000000000000000
-4.823206424713135 -9.759448051452637 0.688719034194946 0.000000000000000
-4.820971965789795 -9.876584053039551 0.547133982181549 0.000000000000000
-4.820769786834717 -10.031157493591309 0.382813543081284 0.000000000000000
-4.820117473602295 -4.651646614074707 0.423788249492645 0.000000000000000
-4.819841861724854 -5.483607292175293 0.405618429183960 0.000000000000000
-4.818921566009521 -10.584930419921875 0.937790930271149 0.000000000000000
-4.817588329315186 -11.002935409545898 0.829386413097382 0.000000000000000
-4.814265727996826 -9.972997665405273 0.466082602739334 0.000000000000000
-4.813768386840820 -4.150592327117920 0.637782752513885 0.000000000000000
-4.813289642333984 -11.489076614379883 0.764059901237488 0.000000000000000
-4.809782981872559 -4.481429576873779 0.162960767745972 0.000000000000000
-4.799629688262939 -11.173590660095215 0.278091222047806 0.000000000000000
-4.798204421997070 -9.595174789428711 0.972549438476562 0.000000000000000
-4.797913551330566 -4.530187606811523 0.265030354261398 0.000000000000000
-4.789720535278320 -9.809082984924316 0.417443275451660 0.000000000000000
-4.784622192382812 -9.317069053649902 1.282309412956238 0.000000000000000
-4.784178733825684 -13.059963226318359 0.451677501201630 0.000000000000000
-4.779342174530029 -9.564130783081055 1.016321778297424 0.000000000000000
-4.777295112609863 -10.907799720764160 0.615740716457367 0.000000000000000
-4.773038864135742 -8.964699745178223 1.243422031402588 0.000000000000000
-4.771961212158203 -10.970048904418945 0.941509246826172 0.000000000000000
-4.771958827972412 -10.494398117065430 0.418697714805603 0.000000000000000
-4.770838260650635 8.773639678955078 0.708860456943512 1.000000000000000
-4.770524501800537 -13.044536590576172 0.264266699552536 0.000000000000000
