# This PCD file was generated using the MATLAB® pcwrite function
# from Computer Vision Toolbox®.
# .PCD v.7 - Point Cloud Data file format
VERSION .7
FIELDS x y z intensity
SIZE 8 8 8 8
TYPE F F F F
COUNT 1 1 1 1
WIDTH 641
HEIGHT 1
VIEWPOINT 0 0 0 1 0 0 0
POINTS 641
DATA ascii
-10.867182731628418 -9.149719238281250 0.789269566535950 0.000000000000000
-10.866341590881348 -10.268965721130371 0.715527236461639 0.000000000000000
-10.859423637390137 -9.709786415100098 0.697170615196228 0.000000000000000
-10.857428550720215 -10.098530769348145 1.292050361633301 0.000000000000000
-10.850116729736328 -10.040639877319336 0.707496225833893 0.000000000000000
-10.845818519592285 -9.201826095581055 0.598624348640442 0.000000000000000
-10.834955215454102 -8.428105354309082 0.498546481132507 0.000000000000000
-10.832733154296875 -9.373024940490723 0.740706503391266 0.000000000000000
-10.831254005432129 -8.797300338745117 0.533612012863159 0.000000000000000
-10.813844680786133 -8.648658752441406 1.572766661643982 0.000000000000000
-10.810111045837402 -9.837138175964355 2.498360633850098 0.000000000000000
-10.807020187377930 -9.276488304138184 0.709026753902435 0.000000000000000
-10.794291496276855 -8.829993247985840 0.533306300640106 0.000000000000000
-10.792050361633301 -9.215982437133789 0.351793050765991 0.000000000000000
-10.783505439758301 -10.406603813171387 0.948093593120575 0.000000000000000
-10.780656814575195 -8.940110206604004 0.724182128906250 0.000000000000000
-10.779082298278809 -9.850248336791992 0.726926505565643 0.000000000000000
-10.774379730224609 -8.565421104431152 0.738215565681458 0.000000000000000
-10.771638870239258 -8.327071189880371 0.756429553031921 0.000000000000000
-10.770058631896973 -9.114950180053711 0.268451750278473 0.000000000000000
-10.758660316467285 -8.250638961791992 0.518479526042938 0.000000000000000
-10.751480102539062 -10.155091285705566 0.821665763854980 0.000000000000000
-10.733755111694336 -9.830850601196289 1.033129572868347 0.000000000000000
-10.730599403381348 -9.350351333618164 0.298136323690414 0.000000000000000
-10.714771270751953 -9.081646919250488 0.537127673625946 0.000000000000000
-10.712449073791504 -8.215200424194336 0.932164132595062 0.000000000000000
-10.711145401000977 -10.029626846313477 1.394840002059937 0.000000000000000
-10.705207824707031 -9.267911911010742 0.759423732757568 0.000000000000000
-10.702179908752441 -8.087536811828613 1.107574939727783 0.000000000000000
-10.693689346313477 -9.133917808532715 0.591896295547485 0.000000000000000
-10.689300537109375 -9.194898605346680 0.051679085940123 0.000000000000000
-10.680059432983398 -9.637315750122070 0.937830090522766 0.000000000000000
-10.675906181335449 -7.952937602996826 1.124906659126282 0.000000000000000
-10.664429664611816 -8.911787986755371 0.531472086906433 0.000000000000000
-10.661059379577637 -7.108428478240967 0.687230288982391 0.000000000000000
-10.644094467163086 -8.958079338073730 0.746141850948334 0.000000000000000
-10.634351730346680 -7.927176952362061 0.864708483219147 0.000000000000000
-10.620434761047363 -7.293221950531006 0.467913568019867 0.000000000000000
-10.613952636718750 -9.772347450256348 0.357641398906708 0.000000000000000
-10.609341621398926 -8.803043365478516 0.527192175388336 0.000000000000000
-10.605134963989258 -9.635729789733887 0.740913033485413 0.000000000000000
-10.569044113159180 -9.844079017639160 0.136129468679428 0.000000000000000
-10.559934616088867 -8.874035835266113 0.262440502643585 0.000000000000000
-10.546699523925781 -9.570545196533203 1.148368000984192 0.000000000000000
-10.546528816223145 -10.060184478759766 0.978304743766785 0.000000000000000
-10.543395042419434 -8.144161224365234 1.772875666618347 0.000000000000000
-10.543065071105957 -8.202821731567383 0.510836839675903 0.000000000000000
-10.531120300292969 -8.849822044372559 0.473154246807098 0.000000000000000
-10.529361724853516 -9.305111885070801 0.078480772674084 0.000000000000000
-10.516627311706543 -9.461240768432617 0.785941183567047 0.000000000000000
-10.516204833984375 1.668236255645752 1.578013062477112 1.000000000000000
-10.501275062561035 -8.963864326477051 1.166669607162476 0.000000000000000
-10.497446060180664 -7.267147541046143 1.699005842208862 0.000000000000000
-10.488118171691895 -9.601843833923340 0.762637078762054 0.000000000000000
-10.486921310424805 -8.639835357666016 1.148145675659180 0.000000000000000
-10.481250762939453 -8.892518997192383 0.790142595767975 0.000000000000000
-10.473353385925293 -8.962809562683105 0.553658246994019 0.000000000000000
-10.470924377441406 -10.458505630493164 0.139484658837318 0.000000000000000
-10.466397285461426 -7.245653629302979 0.878984212875366 0.000000000000000
-10.465555191040039 -9.250680923461914 0.749140977859497 0.000000000000000
-10.464362144470215 -9.389792442321777 0.591728091239929 0.000000000000000
-10.460549354553223 -9.858215332031250 1.047982931137085 0.000000000000000
-10.445055961608887 -8.737141609191895 0.782796680927277 0.000000000000000
-10.441720962524414 -8.480916023254395 0.928857564926147 0.000000000000000
-10.439998626708984 -7.385914802551270 1.055899024009705 0.000000000000000
-10.436409950256348 -9.341721534729004 0.697292566299438 0.000000000000000
-10.434490203857422 -7.955287456512451 0.956651628017426 0.000000000000000
-10.430630683898926 -9.959370613098145 0.801251709461212 0.000000000000000
-10.427780151367188 -10.525059700012207 0.595074236392975 0.000000000000000
-10.424180984497070 -9.625223159790039 1.061844825744629 0.000000000000000
-10.423823356628418 -8.697753906250000 0.466966539621353 0.000000000000000
-10.422834396362305 -8.421586036682129 1.640558958053589 0.000000000000000
-10.420247077941895 -7.817486763000488 0.874366581439972 0.000000000000000
-10.418091773986816 -9.823696136474609 1.182291030883789 0.000000000000000
-10.414570808410645 -9.529161453247070 0.947498321533203 0.000000000000000
-10.410709381103516 -7.926241874694824 1.741217136383057 0.000000000000000
-10.401979446411133 -9.672212600708008 1.350174903869629 0.000000000000000
-10.391428947448730 -8.577615737915039 1.008409261703491 0.000000000000000
-10.385923385620117 -9.115269660949707 0.900878965854645 0.000000000000000
-10.384398460388184 -8.032346725463867 0.552537441253662 0.000000000000000
-10.381956100463867 -6.918146133422852 0.069678768515587 0.000000000000000
-10.381753921508789 -9.653406143188477 1.060949206352234 0.000000000000000
-10.376642227172852 -9.231613159179688 0.932229101657867 0.000000000000000
-10.358031272888184 -9.788599967956543 0.901623368263245 0.000000000000000
-10.347795486450195 -9.430964469909668 0.562326729297638 0.000000000000000
-10.345349311828613 -9.291481971740723 1.321786046028137 0.000000000000000
-10.343181610107422 -8.651925086975098 1.222458243370056 0.000000000000000
-10.340395927429199 -9.282466888427734 0.104287341237068 0.000000000000000
-10.326497077941895 -9.578525543212891 0.295036822557449 0.000000000000000
-10.324489593505859 -9.586049079895020 0.999994575977325 0.000000000000000
-10.322745323181152 -10.096783638000488 1.024916529655457 0.000000000000000
-10.318061828613281 -7.923627853393555 0.948507428169250 0.000000000000000
-10.308491706848145 -7.608687877655029 1.008356332778931 0.000000000000000
-10.299888610839844 -9.562542915344238 0.970464706420898 0.000000000000000
-10.293528556823730 -8.057243347167969 1.484738707542419 0.000000000000000
-10.290440559387207 -8.971860885620117 0.732217311859131 0.000000000000000
-10.288299560546875 -9.158171653747559 0.526733577251434 0.000000000000000
-10.278373718261719 -9.278754234313965 0.956136465072632 0.000000000000000
-10.272149085998535 -9.844101905822754 0.900108039379120 0.000000000000000
-10.268539428710938 -6.842569351196289 0.638048648834229 0.000000000000000
-10.263997077941895 -8.580817222595215 0.949584245681763 0.000000000000000
-10.262435913085938 -8.335298538208008 0.709081113338470 0.000000000000000
-10.261178016662598 -7.755965232849121 1.711669206619263 0.000000000000000
-10.252992630004883 -9.528336524963379 0.804604828357697 0.000000000000000
-10.250638961791992 -9.642161369323730 0.294785499572754 0.000000000000000
-10.249586105346680 -10.752596855163574 0.168532371520996 0.000000000000000
-10.248269081115723 -9.685213088989258 0.810573339462280 0.000000000000000
-10.243342399597168 -8.555048942565918 0.895797073841095 0.000000000000000
-10.233448982238770 -10.752946853637695 0.767558634281158 0.000000000000000
-10.223112106323242 -7.287768363952637 0.480113238096237 0.000000000000000
-10.217280387878418 -7.778974056243896 0.688729822635651 0.000000000000000
-10.212185859680176 -9.741259574890137 0.729759097099304 0.000000000000000
-10.211474418640137 -9.278053283691406 0.289005398750305 0.000000000000000
-10.208959579467773 -9.146474838256836 0.497820556163788 0.000000000000000
-10.198095321655273 -7.782376289367676 1.059190511703491 0.000000000000000
-10.198086738586426 -10.085505485534668 0.383096843957901 0.000000000000000
-10.189375877380371 -8.385149955749512 0.860284805297852 0.000000000000000
-10.165348052978516 -7.737753868103027 0.857490003108978 0.000000000000000
-10.161785125732422 -8.991022109985352 1.230042099952698 0.000000000000000
-10.145838737487793 -9.791224479675293 0.674798429012299 0.000000000000000
-10.143618583679199 -7.997158050537109 1.467133045196533 0.000000000000000
-10.139842987060547 -8.725339889526367 1.212707519531250 0.000000000000000
-10.135169982910156 -9.353119850158691 1.005516767501831 0.000000000000000
-10.129883766174316 -9.621644020080566 1.217395544052124 0.000000000000000
-10.119104385375977 -9.323918342590332 0.076849937438965 0.000000000000000
-10.111874580383301 -8.145281791687012 0.846493184566498 0.000000000000000
-10.106355667114258 -8.766139984130859 1.104612588882446 0.000000000000000
-10.102012634277344 -8.030901908874512 0.891108155250549 0.000000000000000
-10.101103782653809 -8.376574516296387 0.880795717239380 0.000000000000000
-10.093051910400391 -7.149451732635498 0.615749478340149 0.000000000000000
-10.086669921875000 -9.599030494689941 0.880913794040680 0.000000000000000
-10.081572532653809 -7.906669616699219 0.711829304695129 0.000000000000000
-10.073671340942383 -8.294646263122559 0.273340493440628 0.000000000000000
-10.073519706726074 -9.809080123901367 0.943747997283936 0.000000000000000
-10.068959236145020 -9.609342575073242 0.907384455204010 0.000000000000000
-10.067645072937012 -9.687637329101562 1.710556030273438 0.000000000000000
-10.066564559936523 -7.774154186248779 0.657671391963959 0.000000000000000
-10.064238548278809 -6.725218772888184 2.069049835205078 0.000000000000000
-10.062887191772461 -8.645680427551270 1.095396518707275 0.000000000000000
-10.043392181396484 2.536146163940430 1.268212795257568 1.000000000000000
-10.038082122802734 -7.517919063568115 0.987015545368195 0.000000000000000
-10.037143707275391 -8.143013954162598 1.468035817146301 0.000000000000000
-10.022805213928223 -10.405059814453125 0.608043551445007 0.000000000000000
-10.020508766174316 -8.662299156188965 0.252015948295593 0.000000000000000
-10.016979217529297 -7.406226634979248 1.028580069541931 0.000000000000000
-10.008323669433594 -6.279183387756348 0.633674323558807 0.000000000000000
-10.006845474243164 -7.569768428802490 0.118260361254215 0.000000000000000
-9.984770774841309 -10.594841957092285 1.383862972259521 0.000000000000000
-9.980923652648926 -9.249556541442871 1.097250819206238 0.000000000000000
-9.967670440673828 -6.573969841003418 0.295985907316208 0.000000000000000
-9.961356163024902 -6.591776371002197 0.273153066635132 0.000000000000000
-9.954741477966309 -8.217151641845703 1.065773487091064 0.000000000000000
-9.948908805847168 -10.733319282531738 0.166036605834961 0.000000000000000
-9.942239761352539 -8.612845420837402 1.192483544349670 0.000000000000000
-9.940669059753418 -6.538745880126953 0.477889418601990 0.000000000000000
-9.928552627563477 -8.462418556213379 0.248211354017258 0.000000000000000
-9.915323257446289 -9.741041183471680 0.585000097751617 0.000000000000000
-9.910129547119141 -7.598267555236816 0.453540802001953 0.000000000000000
-9.901573181152344 -10.041501998901367 1.137115716934204 0.000000000000000
-9.886780738830566 -9.560234069824219 0.923121035099030 0.000000000000000
-9.883136749267578 -9.390556335449219 0.547558188438416 0.000000000000000
-9.877062797546387 -7.803796291351318 0.046137325465679 0.000000000000000
-9.869239807128906 -9.218683242797852 0.282890200614929 0.000000000000000
-9.868343353271484 -10.369306564331055 0.519887864589691 0.000000000000000
-9.867292404174805 -7.900668144226074 1.682121276855469 0.000000000000000
-9.866093635559082 -6.496106624603271 2.019176721572876 0.000000000000000
-9.854355812072754 -8.406901359558105 0.271329998970032 0.000000000000000
-9.854216575622559 -9.798652648925781 0.932764828205109 0.000000000000000
-9.851074218750000 -7.506136894226074 0.688086807727814 0.000000000000000
-9.849924087524414 -7.391231060028076 0.850327670574188 0.000000000000000
-9.843319892883301 -10.015935897827148 1.719305753707886 0.000000000000000
-9.838320732116699 -7.543210506439209 0.259686022996902 0.000000000000000
-9.831754684448242 -7.324093341827393 1.631467700004578 0.000000000000000
-9.831733703613281 -10.788280487060547 0.586245238780975 0.000000000000000
-9.822806358337402 -8.050761222839355 0.950495898723602 0.000000000000000
-9.817398071289062 -7.528800487518311 1.045422196388245 0.000000000000000
-9.812541961669922 -9.365280151367188 0.310189217329025 0.000000000000000
-9.800905227661133 -7.773956298828125 0.598694741725922 0.000000000000000
-9.790755271911621 -9.998689651489258 1.589469313621521 0.000000000000000
-9.787816047668457 -7.236790657043457 0.817039847373962 0.000000000000000
-9.786973953247070 -10.144621849060059 1.163858890533447 0.000000000000000
-9.784050941467285 -10.932107925415039 0.617462754249573 0.000000000000000
-9.783739089965820 -7.724512577056885 0.812664628028870 0.000000000000000
-9.779067039489746 -8.652398109436035 0.951997816562653 0.000000000000000
-9.768779754638672 -7.606431007385254 0.687864959239960 0.000000000000000
-9.768522262573242 -7.067075729370117 0.275713562965393 0.000000000000000
-9.766274452209473 -8.688598632812500 0.073007442057133 0.000000000000000
-9.760563850402832 -7.445795059204102 1.502995014190674 0.000000000000000
-9.759531974792480 -8.150979042053223 0.461816042661667 0.000000000000000
-9.757468223571777 -8.442651748657227 0.866062164306641 0.000000000000000
-9.756836891174316 -11.208936691284180 1.083468317985535 0.000000000000000
-9.755877494812012 -8.277096748352051 0.932800769805908 0.000000000000000
-9.755471229553223 -8.210212707519531 1.077417969703674 0.000000000000000
-9.747058868408203 -10.756299018859863 1.777150511741638 0.000000000000000
-9.741711616516113 -6.693791866302490 1.572899460792542 0.000000000000000
-9.737750053405762 -7.524017810821533 0.802255868911743 0.000000000000000
-9.732675552368164 -8.141244888305664 0.534035444259644 0.000000000000000
-9.726486206054688 -8.185818672180176 0.290710926055908 0.000000000000000
-9.720905303955078 -7.910679340362549 0.937957942485809 0.000000000000000
-9.709935188293457 -6.962143898010254 0.020853184163570 0.000000000000000
-9.708634376525879 -8.703109741210938 0.498608529567719 0.000000000000000
-9.702788352966309 -10.547270774841309 1.362287521362305 0.000000000000000
-9.699659347534180 -11.392224311828613 1.119758129119873 0.000000000000000
-9.698800086975098 -6.963650703430176 0.066685199737549 0.000000000000000
-9.695522308349609 5.741223812103271 1.379527688026428 1.000000000000000
-9.685287475585938 -6.704908370971680 0.088407084345818 0.000000000000000
-9.677303314208984 -10.446148872375488 1.353581547737122 0.000000000000000
-9.674863815307617 -8.551775932312012 0.295283287763596 0.000000000000000
-9.674796104431152 -11.034323692321777 1.041625618934631 0.000000000000000
-9.672067642211914 -7.791009426116943 1.001446366310120 0.000000000000000
-9.670273780822754 -7.151450157165527 0.830488562583923 0.000000000000000
-9.665930747985840 -6.935959815979004 0.409214466810226 0.000000000000000
-9.662877082824707 -8.601448059082031 0.295831978321075 0.000000000000000
-9.661787033081055 5.766893386840820 1.377583384513855 1.000000000000000
-9.657444953918457 -9.522868156433105 1.289233446121216 0.000000000000000
-9.656528472900391 -5.887894153594971 0.476006418466568 0.000000000000000
-9.650086402893066 -8.711570739746094 0.297295153141022 0.000000000000000
-9.649611473083496 -11.046757698059082 1.329716682434082 0.000000000000000
-9.644652366638184 -9.793250083923340 0.922585308551788 0.000000000000000
-9.643951416015625 -8.403475761413574 0.464574426412582 0.000000000000000
-9.640062332153320 -7.671348094940186 0.045155059546232 0.000000000000000
-9.638341903686523 -6.820289611816406 0.451529651880264 0.000000000000000
-9.637883186340332 -7.397012233734131 0.674995183944702 0.000000000000000
-9.632627487182617 -7.603026866912842 0.092099465429783 0.000000000000000
-9.626180648803711 -7.761248588562012 0.259015858173370 0.000000000000000
-9.621190071105957 -8.460756301879883 0.958854496479034 0.000000000000000
-9.618870735168457 5.898609161376953 1.281597137451172 0.000000000000000
-9.616458892822266 5.858168601989746 1.199403882026672 1.000000000000000
-9.612859725952148 5.615499496459961 1.363000631332397 0.000000000000000
-9.612627029418945 -8.800333976745605 0.298026710748672 0.000000000000000
-9.605973243713379 -6.397187232971191 0.396976530551910 0.000000000000000
-9.605615615844727 -9.618370056152344 0.912405788898468 0.000000000000000
-9.604483604431152 -7.483350276947021 0.091379001736641 0.000000000000000
-9.602896690368652 -7.471343040466309 0.840132594108582 0.000000000000000
-9.600865364074707 5.867754936218262 1.377583384513855 1.000000000000000
-9.600713729858398 -8.546113967895508 0.887526094913483 0.000000000000000
-9.599624633789062 -7.851046562194824 0.259769767522812 0.000000000000000
-9.597192764282227 -9.859367370605469 0.156098917126656 0.000000000000000
-9.591431617736816 -7.561817646026611 0.232384264469147 0.000000000000000
-9.585783004760742 1.072166681289673 2.006278753280640 1.000000000000000
-9.582122802734375 -7.242697238922119 0.829386413097382 0.000000000000000
-9.581308364868164 -7.506764888763428 0.067980922758579 0.000000000000000
-9.575275421142578 -7.903920650482178 1.180220127105713 0.000000000000000
-9.574764251708984 -9.323417663574219 1.636184096336365 0.000000000000000
-9.573956489562988 -5.814652442932129 0.385288625955582 0.000000000000000
-9.573097229003906 -8.052162170410156 0.262031584978104 0.000000000000000
-9.571091651916504 -5.990210056304932 0.540374159812927 0.000000000000000
-9.560820579528809 -8.719832420349121 0.718929827213287 0.000000000000000
-9.558101654052734 -6.913321018218994 0.609957158565521 0.000000000000000
-9.553824424743652 -9.113257408142090 0.479527950286865 0.000000000000000
-9.548012733459473 -7.316389083862305 0.413752138614655 0.000000000000000
-9.544673919677734 -5.898131847381592 0.948087453842163 0.000000000000000
-9.537784576416016 -7.484495162963867 0.883935570716858 0.000000000000000
-9.537364006042480 -7.526210308074951 1.487440109252930 0.000000000000000
-9.536481857299805 -6.345864772796631 0.548213958740234 0.000000000000000
-9.533468246459961 5.865945816040039 0.975374758243561 1.000000000000000
-9.529857635498047 -8.483040809631348 1.078091621398926 0.000000000000000
-9.528059959411621 -6.790780544281006 0.604999840259552 0.000000000000000
-9.527925491333008 -7.962061882019043 0.283943861722946 0.000000000000000
-9.523756027221680 -9.559726715087891 1.114157915115356 0.000000000000000
-9.518047332763672 -7.784328460693359 0.446572214365005 0.000000000000000
-9.513870239257812 5.459231376647949 1.874949932098389 1.000000000000000
-9.510938644409180 -7.723269462585449 0.068427726626396 0.000000000000000
-9.505554199218750 -8.198031425476074 0.890960931777954 0.000000000000000
-9.501610755920410 -7.392539501190186 0.645670831203461 0.000000000000000
-9.495039939880371 -7.813758850097656 0.612169563770294 0.000000000000000
-9.492649078369141 -8.458238601684570 0.926983475685120 0.000000000000000
-9.491528511047363 -7.013622760772705 0.951615035533905 0.000000000000000
-9.485111236572266 -6.468849658966064 0.262545168399811 0.000000000000000
-9.476986885070801 -11.209739685058594 1.098563075065613 0.000000000000000
-9.474980354309082 -9.799983978271484 0.128476679325104 0.000000000000000
-9.474078178405762 -5.822115421295166 0.297014862298965 0.000000000000000
-9.470856666564941 -8.225926399230957 0.890394508838654 0.000000000000000
-9.468948364257812 -7.542203426361084 1.482093095779419 0.000000000000000
-9.467374801635742 -6.456753730773926 0.614608407020569 0.000000000000000
-9.464275360107422 -11.103198051452637 0.810571193695068 0.000000000000000
-9.463052749633789 -5.740286350250244 0.019317295402288 0.000000000000000
-9.454755783081055 -8.640039443969727 0.046943668276072 0.000000000000000
-9.452227592468262 -7.505720615386963 0.229644954204559 0.000000000000000
-9.451313018798828 -7.443059921264648 0.575748980045319 0.000000000000000
-9.442339897155762 -7.032467842102051 0.246617957949638 0.000000000000000
-9.435582160949707 -8.529894828796387 0.095461636781693 0.000000000000000
-9.425240516662598 -9.748538017272949 0.336131364107132 0.000000000000000
-9.423470497131348 -8.468864440917969 0.508871138095856 0.000000000000000
-9.418664932250977 -8.683384895324707 0.489895880222321 0.000000000000000
-9.416564941406250 -8.335177421569824 0.094380937516689 0.000000000000000
-9.413202285766602 -7.285327434539795 1.457302331924438 0.000000000000000
-9.408961296081543 -8.609045028686523 0.267141520977020 0.000000000000000
-9.408179283142090 -9.557803153991699 0.667658627033234 0.000000000000000
-9.407552719116211 -5.887856483459473 0.360407233238220 0.000000000000000
-9.407163619995117 5.571806430816650 1.868884325027466 0.000000000000000
-9.401121139526367 -6.888396739959717 0.557774722576141 0.000000000000000
-9.398330688476562 -6.172140121459961 0.603040277957916 0.000000000000000
-9.397994995117188 -8.620128631591797 1.052936792373657 0.000000000000000
-9.395638465881348 -8.481868743896484 0.678875565528870 0.000000000000000
-9.395226478576660 -8.244617462158203 0.453976333141327 0.000000000000000
-9.388558387756348 -7.569661617279053 0.438006609678268 0.000000000000000
-9.384272575378418 5.602585792541504 1.868210315704346 1.000000000000000
-9.383887290954590 -6.728363513946533 0.552611887454987 0.000000000000000
-9.383423805236816 -6.492063999176025 0.765874385833740 0.000000000000000
-9.380482673645020 -6.986396789550781 0.424795269966125 0.000000000000000
-9.372856140136719 -6.468072891235352 0.523100852966309 0.000000000000000
-9.372097969055176 -7.449032783508301 0.066863916814327 0.000000000000000
-9.371424674987793 -9.478680610656738 0.535358130931854 0.000000000000000
-9.369368553161621 -8.394263267517090 0.844363808631897 0.000000000000000
-9.368668556213379 -7.287536144256592 0.796680808067322 0.000000000000000
-9.368236541748047 -10.800504684448242 1.296130776405334 0.000000000000000
-9.357371330261230 -7.982915878295898 0.446717381477356 0.000000000000000
-9.355357170104980 -11.144539833068848 0.193019390106201 0.000000000000000
-9.343888282775879 -8.259220123291016 0.476903319358826 0.000000000000000
-9.342666625976562 -7.605587482452393 0.994677960872650 0.000000000000000
-9.341218948364258 -11.602365493774414 0.856255650520325 0.000000000000000
-9.341056823730469 -8.361260414123535 0.431215256452560 0.000000000000000
-9.339433670043945 -6.417376518249512 0.607753217220306 0.000000000000000
-9.338446617126465 -6.892698287963867 0.555480182170868 0.000000000000000
-9.335360527038574 -7.634917736053467 0.623589754104614 0.000000000000000
-9.332812309265137 -7.155628681182861 0.608098149299622 0.000000000000000
-9.327234268188477 -7.857600212097168 0.701073646545410 0.000000000000000
-9.320032119750977 -8.587638854980469 0.265466123819351 0.000000000000000
-9.317530632019043 -11.093186378479004 0.164357647299767 0.000000000000000
-9.316102981567383 -8.222499847412109 0.236417129635811 0.000000000000000
-9.316040039062500 -8.694041252136230 1.027487039566040 0.000000000000000
-9.315839767456055 2.376656293869019 1.999762177467346 1.000000000000000
-9.315690040588379 -11.570657730102539 0.396767437458038 0.000000000000000
-9.309217453002930 -6.042704105377197 2.308483123779297 0.000000000000000
-9.307495117187500 -5.796560287475586 0.926532387733459 0.000000000000000
-9.306906700134277 -7.663293361663818 0.623383224010468 0.000000000000000
-9.305265426635742 -9.531465530395508 1.630837082862854 0.000000000000000
-9.304308891296387 -8.055099487304688 0.849776566028595 0.000000000000000
-9.300093650817871 -9.874545097351074 1.181977748870850 0.000000000000000
-9.293546676635742 -9.700710296630859 0.694644749164581 0.000000000000000
-9.292995452880859 -7.765741348266602 0.649526834487915 0.000000000000000
-9.292131423950195 -11.159889221191406 0.639120578765869 0.000000000000000
-9.287403106689453 -7.554128646850586 0.089848011732101 0.000000000000000
-9.287247657775879 -7.815607070922852 0.791326642036438 0.000000000000000
-9.285157203674316 -8.713551521301270 0.609402835369110 0.000000000000000
-9.278513908386230 -8.037868499755859 0.044993791729212 0.000000000000000
-9.277806282043457 -7.971166610717773 0.068316020071507 0.000000000000000
-9.273464202880859 -7.848347663879395 0.417877286672592 0.000000000000000
-9.273434638977051 -6.870000362396240 0.663425922393799 0.000000000000000
-9.272890090942383 -11.159738540649414 2.150343179702759 0.000000000000000
-9.271911621093750 -11.609733581542969 0.882716119289398 0.000000000000000
-9.269893646240234 -8.363661766052246 0.261528968811035 0.000000000000000
-9.268258094787598 -7.788576602935791 0.789244949817657 0.000000000000000
-9.261595726013184 -7.210472583770752 0.584325611591339 0.000000000000000
-9.255849838256836 -6.587764263153076 0.894119977951050 0.000000000000000
-9.255271911621094 -8.584891319274902 0.070505350828171 0.000000000000000
-9.242854118347168 -9.373474121093750 0.858202993869781 0.000000000000000
-9.237893104553223 -6.193808555603027 0.361186206340790 0.000000000000000
-9.231467247009277 -5.628721237182617 0.288791179656982 0.000000000000000
-9.230038642883301 -7.243000030517578 0.674444794654846 0.000000000000000
-9.227021217346191 -6.029257297515869 0.463896006345749 0.000000000000000
-9.226508140563965 -9.711165428161621 0.744225502014160 0.000000000000000
-9.225425720214844 -11.825863838195801 0.400612294673920 0.000000000000000
-9.220818519592285 -8.870911598205566 0.145162910223007 0.000000000000000
-9.218369483947754 -7.120655536651611 0.804311871528625 0.000000000000000
-9.215748786926270 -7.816078662872314 0.044290076941252 0.000000000000000
-9.215244293212891 -11.405093193054199 0.391640961170197 0.000000000000000
-9.214685440063477 -5.682668685913086 0.205980420112610 0.000000000000000
-9.213550567626953 -7.316195011138916 0.404676824808121 0.000000000000000
-9.206907272338867 2.795865535736084 2.001391172409058 1.000000000000000
-9.204777717590332 -7.263757228851318 0.787037074565887 0.000000000000000
-9.203369140625000 -5.671032428741455 0.351059526205063 0.000000000000000
-9.201401710510254 -7.004008293151855 0.064585223793983 0.000000000000000
-9.200522422790527 -11.427611351013184 0.166445001959801 0.000000000000000
-9.199704170227051 -8.417578697204590 1.029567480087280 0.000000000000000
-9.197231292724609 -6.851409435272217 0.791912436485291 0.000000000000000
-9.197108268737793 -7.102694988250732 0.959459424018860 0.000000000000000
-9.193985939025879 -6.313656806945801 0.576701760292053 0.000000000000000
-9.191405296325684 -7.901391983032227 1.024203896522522 0.000000000000000
-9.188592910766602 -10.023375511169434 1.122715711593628 0.000000000000000
-9.185349464416504 -7.785336971282959 0.275347799062729 0.000000000000000
-9.182355880737305 -11.090890884399414 0.191003233194351 0.000000000000000
-9.181889533996582 -7.291054248809814 1.331705331802368 0.000000000000000
-9.174201011657715 -11.035482406616211 0.383310467004776 0.000000000000000
-9.173345565795898 -7.900913238525391 0.999615192413330 0.000000000000000
-9.163688659667969 -10.055240631103516 1.185450196266174 0.000000000000000
-9.148962974548340 -8.102293968200684 1.161672830581665 0.000000000000000
-9.145953178405762 -10.287583351135254 0.791290402412415 0.000000000000000
-9.139437675476074 -8.026928901672363 0.044583290815353 0.000000000000000
-9.138827323913574 -11.635088920593262 0.167851716279984 0.000000000000000
-9.136375427246094 -10.156239509582520 0.548681914806366 0.000000000000000
-9.135561943054199 -7.367258071899414 0.810373902320862 0.000000000000000
-9.129532814025879 -10.058588027954102 0.990391850471497 0.000000000000000
-9.127900123596191 -7.361078739166260 0.990860879421234 0.000000000000000
-9.124906539916992 -9.308944702148438 0.348172783851624 0.000000000000000
-9.120826721191406 -10.333179473876953 0.765749037265778 0.000000000000000
-9.119096755981445 -7.196144104003906 0.959130227565765 0.000000000000000
-9.118425369262695 -5.918859481811523 1.033354997634888 0.000000000000000
-9.115723609924316 -7.245264053344727 0.422907918691635 0.000000000000000
-9.099983215332031 -7.818387508392334 0.251309067010880 0.000000000000000
-9.098783493041992 -6.814441204071045 1.210842847824097 0.000000000000000
-9.093555450439453 -10.373596191406250 0.368465036153793 0.000000000000000
-9.090517044067383 -7.166900157928467 0.042428161948919 0.000000000000000
-9.085448265075684 -8.139892578125000 1.007185578346252 0.000000000000000
-9.080512046813965 -6.725111961364746 0.084804758429527 0.000000000000000
-9.079956054687500 -11.887268066406250 1.061733126640320 0.000000000000000
-9.074350357055664 -11.841319084167480 1.058901071548462 0.000000000000000
-9.073595046997070 -6.753895282745361 0.912071645259857 0.000000000000000
-9.071455001831055 -5.643846988677979 0.059670407325029 0.000000000000000
-9.062497138977051 -8.592775344848633 0.886429667472839 0.000000000000000
-9.060832977294922 -8.127539634704590 0.044612612575293 0.000000000000000
-9.058738708496094 -9.122839927673340 0.442215651273727 0.000000000000000
-9.057074546813965 -6.696504592895508 0.062909722328186 0.000000000000000
-9.054431915283203 -8.300930023193359 0.092189528048038 0.000000000000000
-9.054078102111816 -8.118629455566406 0.605407476425171 0.000000000000000
-9.052916526794434 3.537231922149658 1.189952015876770 1.000000000000000
-9.049995422363281 -9.832145690917969 0.151606529951096 0.000000000000000
-9.048388481140137 -7.349231719970703 0.266568869352341 0.000000000000000
-9.044015884399414 -10.032418251037598 0.750438511371613 0.000000000000000
-9.040270805358887 -10.202373504638672 0.128476679325104 0.000000000000000
-9.037792205810547 -7.047898292541504 0.946293652057648 0.000000000000000
-9.035923957824707 -7.234997749328613 0.442664116621017 0.000000000000000
-9.033517837524414 6.648166179656982 0.515208482742310 1.000000000000000
-9.030894279479980 -5.633054256439209 0.079881578683853 0.000000000000000
-9.028284072875977 -11.741260528564453 0.168033212423325 0.000000000000000
-9.026089668273926 -7.809825897216797 0.066662855446339 0.000000000000000
-9.018946647644043 -6.231283664703369 0.355993032455444 0.000000000000000
-9.012005805969238 -6.897930145263672 0.893178462982178 0.000000000000000
-9.010001182556152 -6.007560253143311 0.247639268636703 0.000000000000000
-9.003895759582520 2.236245393753052 1.585822224617004 1.000000000000000
-8.999839782714844 -11.128166198730469 1.015854001045227 0.000000000000000
-8.990207672119141 -7.795256137847900 1.456816315650940 0.000000000000000
-8.988667488098145 -8.175044059753418 0.488002628087997 0.000000000000000
-8.977049827575684 -7.395901203155518 0.623820006847382 0.000000000000000
-8.975045204162598 -11.814764976501465 1.410359263420105 0.000000000000000
-8.967681884765625 -8.356943130493164 0.586648225784302 0.000000000000000
-8.957100868225098 -9.887320518493652 0.535839676856995 0.000000000000000
-8.944743156433105 -7.794205188751221 0.613468587398529 0.000000000000000
-8.944197654724121 -9.814394950866699 0.942504107952118 0.000000000000000
-8.939594268798828 -7.789718627929688 0.795877158641815 0.000000000000000
-8.928335189819336 -9.455988883972168 0.897996723651886 0.000000000000000
-8.928137779235840 -9.254401206970215 0.863115489482880 0.000000000000000
-8.913626670837402 -9.794572830200195 1.962693929672241 0.000000000000000
-8.906639099121094 -7.236165046691895 0.748130321502686 0.000000000000000
-8.901714324951172 -7.221854209899902 0.924288332462311 0.000000000000000
-8.896543502807617 -9.365831375122070 0.941817522048950 0.000000000000000
-8.893224716186523 -7.749312877655029 0.065880954265594 0.000000000000000
-8.890460014343262 -7.858428001403809 1.002648830413818 0.000000000000000
-8.888056755065918 -11.623416900634766 0.587689995765686 0.000000000000000
-8.887204170227051 -9.970574378967285 0.793519377708435 0.000000000000000
-8.881762504577637 -11.184325218200684 0.793485522270203 0.000000000000000
-8.877419471740723 -8.112452507019043 0.228807955980301 0.000000000000000
-8.854140281677246 -9.863945007324219 0.991990506649017 0.000000000000000
-8.852991104125977 -7.876092910766602 0.248209565877914 0.000000000000000
-8.849062919616699 -11.229820251464844 1.296130776405334 0.000000000000000
-8.845414161682129 -8.836773872375488 0.141850352287292 0.000000000000000
-8.835526466369629 -5.162651062011719 0.371659576892853 0.000000000000000
-8.831637382507324 -11.157952308654785 0.407427132129669 0.000000000000000
-8.831612586975098 -10.636220932006836 0.555263519287109 0.000000000000000
-8.831234931945801 -6.525708675384521 0.715863108634949 0.000000000000000
-8.829304695129395 -9.285950660705566 0.884770631790161 0.000000000000000
-8.818327903747559 -5.072400569915771 0.682830989360809 0.000000000000000
-8.815179824829102 -11.309749603271484 2.125127792358398 0.000000000000000
-8.800298690795898 -7.293701171875000 0.217470273375511 0.000000000000000
-8.792719841003418 -6.655676841735840 0.082763440907001 0.000000000000000
-8.781066894531250 -7.982874870300293 0.453822433948517 0.000000000000000
-8.773123741149902 -6.763781547546387 0.871837556362152 0.000000000000000
-8.765118598937988 -6.868776798248291 0.425850182771683 0.000000000000000
-8.758258819580078 -11.980674743652344 1.082013964653015 0.000000000000000
-8.758009910583496 -7.423131465911865 0.792739033699036 0.000000000000000
-8.757950782775879 -9.908120155334473 0.327804893255234 0.000000000000000
-8.754981994628906 -11.682606697082520 0.614435136318207 0.000000000000000
-8.754449844360352 -5.130455017089844 0.427060157060623 0.000000000000000
-8.752050399780273 -11.605088233947754 1.087816357612610 0.000000000000000
-8.749018669128418 -5.340004920959473 0.608957886695862 0.000000000000000
-8.745179176330566 -7.469615936279297 0.661130368709564 0.000000000000000
-8.742367744445801 -6.582107543945312 0.439523428678513 0.000000000000000
-8.738781929016113 -8.466102600097656 0.138038635253906 0.000000000000000
-8.730343818664551 -12.079132080078125 2.547559499740601 0.000000000000000
-8.728981018066406 -10.468671798706055 0.390255421400070 0.000000000000000
-8.728396415710449 -5.139164447784424 0.621288478374481 0.000000000000000
-8.727045059204102 -10.616167068481445 0.182301983237267 0.000000000000000
-8.726944923400879 -7.292718410491943 0.785299360752106 0.000000000000000
-8.721603393554688 -7.083812236785889 0.949434697628021 0.000000000000000
-8.715724945068359 -8.091786384582520 0.271964251995087 0.000000000000000
-8.715070724487305 -12.182515144348145 0.716865777969360 0.000000000000000
-8.713059425354004 -6.681900978088379 0.588901519775391 0.000000000000000
-8.710694313049316 -7.823349952697754 0.966700553894043 0.000000000000000
-8.709851264953613 -6.048096656799316 0.923984408378601 0.000000000000000
-8.709429740905762 -10.616626739501953 1.196561574935913 0.000000000000000
-8.705185890197754 -6.968681812286377 0.748462080955505 0.000000000000000
-8.699733734130859 -6.444987773895264 1.850687384605408 0.000000000000000
-8.695002555847168 -12.020946502685547 0.025893691927195 0.000000000000000
-8.691136360168457 -10.823514938354492 0.985267937183380 0.000000000000000
-8.688989639282227 -10.377917289733887 0.153557762503624 0.000000000000000
-8.683789253234863 -8.330947875976562 0.228960126638412 0.000000000000000
-8.680617332458496 -6.465151786804199 0.726495742797852 0.000000000000000
-8.663250923156738 -6.461154460906982 0.600439548492432 0.000000000000000
-8.661640167236328 -5.364587306976318 0.272130131721497 0.000000000000000
-8.656373977661133 -6.832470417022705 0.421723157167435 0.000000000000000
-8.652990341186523 -11.165826797485352 0.784831702709198 0.000000000000000
-8.651605606079102 -11.430348396301270 1.362666010856628 0.000000000000000
-8.642385482788086 -11.802270889282227 0.587529480457306 0.000000000000000
-8.639754295349121 -8.188508033752441 0.821946680545807 0.000000000000000
-8.633577346801758 -6.513197898864746 1.151953101158142 0.000000000000000
-8.624620437622070 -6.384677886962891 0.534206449985504 0.000000000000000
-8.621823310852051 -5.619211196899414 0.869613409042358 0.000000000000000
-8.618291854858398 -10.071487426757812 0.736459314823151 0.000000000000000
-8.612983703613281 -6.508750915527344 0.724620580673218 0.000000000000000
-8.601536750793457 -11.168921470642090 1.414543747901917 0.000000000000000
-8.600403785705566 -11.393248558044434 0.381281226873398 0.000000000000000
-8.598536491394043 -11.718775749206543 0.919554829597473 0.000000000000000
-8.595545768737793 -12.045618057250977 3.965107917785645 0.000000000000000
-8.595382690429688 -7.909950733184814 0.401789218187332 0.000000000000000
-8.589447021484375 -9.397419929504395 0.340055882930756 0.000000000000000
-8.585307121276855 -7.800532817840576 0.064786285161972 0.000000000000000
-8.582939147949219 2.221617460250854 1.085442304611206 1.000000000000000
-8.579717636108398 -5.666093826293945 1.095181584358215 0.000000000000000
-8.577633857727051 -8.940922737121582 0.736110746860504 0.000000000000000
-8.574357032775879 -6.480972290039062 0.411023408174515 0.000000000000000
-8.566884040832520 -6.663857936859131 0.561210155487061 0.000000000000000
-8.559924125671387 -8.749658584594727 0.821593821048737 0.000000000000000
-8.556575775146484 -6.144901275634766 0.890158116817474 0.000000000000000
-8.554430007934570 -5.358281612396240 0.347199797630310 0.000000000000000
-8.553235054016113 -9.844923019409180 0.523800194263458 0.000000000000000
-8.551278114318848 -8.985381126403809 0.832576930522919 0.000000000000000
-8.550022125244141 -11.781928062438965 1.061362624168396 0.000000000000000
-8.549625396728516 -12.093854904174805 0.395592629909515 0.000000000000000
-8.547374725341797 -8.558724403381348 0.625448763370514 0.000000000000000
-8.545390129089355 -8.734803199768066 0.631852030754089 0.000000000000000
-8.541578292846680 -9.249292373657227 1.541396260261536 0.000000000000000
-8.540882110595703 -11.528871536254883 1.073785662651062 0.000000000000000
-8.537649154663086 -11.385972976684570 0.134131446480751 0.000000000000000
-8.536005020141602 -8.265037536621094 0.660128474235535 0.000000000000000
-8.531549453735352 -8.781768798828125 0.633091270923615 0.000000000000000
-8.530073165893555 -11.443556785583496 0.655619800090790 0.000000000000000
-8.528837203979492 -7.018641471862793 0.379925966262817 0.000000000000000
-8.527171134948730 -6.722762107849121 0.540570795536041 0.000000000000000
-8.519642829895020 -5.341878890991211 0.056163012981415 0.000000000000000
-8.517959594726562 -10.030541419982910 0.351483613252640 0.000000000000000
-8.510809898376465 -7.787251472473145 0.064428843557835 0.000000000000000
-8.502213478088379 -8.001440048217773 0.761141240596771 0.000000000000000
-8.495232582092285 -6.560654163360596 0.224837824702263 0.000000000000000
-8.492914199829102 -9.489469528198242 0.732064127922058 0.000000000000000
-8.491067886352539 -7.828201770782471 0.264099776744843 0.000000000000000
-8.488206863403320 -9.093573570251465 0.332259327173233 0.000000000000000
-8.486839294433594 -8.760186195373535 1.159401655197144 0.000000000000000
-8.486558914184570 2.523826122283936 1.083984017372131 1.000000000000000
-8.484208106994629 -9.249809265136719 0.335249781608582 0.000000000000000
-8.476820945739746 -10.923527717590332 0.183416172862053 0.000000000000000
-8.476424217224121 -11.665085792541504 0.357443153858185 0.000000000000000
-8.473197937011719 4.030982494354248 1.951702713966370 1.000000000000000
-8.472175598144531 -6.450330257415771 0.407202064990997 0.000000000000000
-8.470499992370605 -9.299822807312012 0.142712533473969 0.000000000000000
-8.469350814819336 -6.540666580200195 0.388645559549332 0.000000000000000
-8.465812683105469 -11.627424240112305 0.384164869785309 0.000000000000000
-8.462292671203613 2.697731971740723 1.847438097000122 1.000000000000000
-8.461820602416992 -9.388575553894043 0.726554691791534 0.000000000000000
-8.451566696166992 -9.311630249023438 0.142667144536972 0.000000000000000
-8.451128959655762 2.503660202026367 1.079123139381409 1.000000000000000
-8.447896957397461 -10.455397605895996 0.772696077823639 0.000000000000000
-8.445374488830566 -9.062262535095215 0.640527307987213 0.000000000000000
-8.442447662353516 -11.422234535217285 0.898592650890350 0.000000000000000
-8.441541671752930 -6.513073921203613 0.202860653400421 0.000000000000000
-8.440128326416016 4.197429180145264 1.960662841796875 0.000000000000000
-8.439146995544434 -7.015775680541992 1.043196439743042 0.000000000000000
-8.437168121337891 2.064249277114868 1.484728455543518 1.000000000000000
-8.436667442321777 -8.487475395202637 0.135769754648209 0.000000000000000
-8.435967445373535 -8.141400337219238 0.313141882419586 0.000000000000000
-8.425641059875488 -8.041595458984375 0.624676883220673 0.000000000000000
-8.424537658691406 -5.558969497680664 1.012784481048584 0.000000000000000
-8.424388885498047 -10.567420005798340 0.386935561895370 0.000000000000000
-8.423134803771973 -12.023227691650391 0.589616298675537 0.000000000000000
-8.421422958374023 -11.192669868469238 0.374125540256500 0.000000000000000
-8.419700622558594 -11.564091682434082 2.445118188858032 0.000000000000000
-8.418814659118652 -8.151566505432129 0.470665693283081 0.000000000000000
-8.418576240539551 -10.923067092895508 0.182938665151596 0.000000000000000
-8.413721084594727 -7.020502567291260 0.208491459488869 0.000000000000000
-8.412335395812988 -11.673007965087891 0.467257082462311 0.000000000000000
-8.407692909240723 -7.525798797607422 0.041357927024364 0.000000000000000
-8.404592514038086 -8.941222190856934 0.139218449592590 0.000000000000000
-8.404508590698242 -11.357629776000977 0.649012207984924 0.000000000000000
-8.403646469116211 -8.863649368286133 0.490571081638336 0.000000000000000
-8.400813102722168 -6.394608497619629 0.221151962876320 0.000000000000000
-8.399303436279297 -8.772185325622559 1.616166114807129 0.000000000000000
-8.393623352050781 -11.924329757690430 1.386134147644043 0.000000000000000
-8.390762329101562 -10.375050544738770 0.125762373209000 0.000000000000000
-8.378999710083008 -6.757137775421143 0.411634832620621 0.000000000000000
-8.373128890991211 -8.582659721374512 0.897358834743500 0.000000000000000
-8.372283935546875 -8.054575920104980 0.488957792520523 0.000000000000000
-8.371779441833496 -12.043618202209473 0.363588869571686 0.000000000000000
-8.369353294372559 -11.235714912414551 0.401130825281143 0.000000000000000
-8.369015693664551 -6.604233264923096 0.387193769216537 0.000000000000000
-8.366836547851562 -6.462895393371582 0.404297858476639 0.000000000000000
-8.363784790039062 4.050778865814209 1.932967662811279 1.000000000000000
-8.362117767333984 -6.451794147491455 0.363287866115570 0.000000000000000
-8.357274055480957 -10.957789421081543 2.866461515426636 0.000000000000000
-8.355431556701660 -6.932873725891113 0.248279392719269 0.000000000000000
-8.350160598754883 -6.600242137908936 0.079881578683853 0.000000000000000
-8.345996856689453 -11.625811576843262 0.134885415434837 0.000000000000000
-8.341337203979492 -10.105187416076660 0.148656994104385 0.000000000000000
-8.339459419250488 -11.835968971252441 0.386728107929230 0.000000000000000
-8.338319778442383 -8.841608047485352 1.487926125526428 0.000000000000000
-8.332610130310059 -6.670427799224854 0.223581284284592 0.000000000000000
-8.329805374145508 -6.113925933837891 0.693546295166016 0.000000000000000
-8.327380180358887 2.161051988601685 1.470575451850891 1.000000000000000
-8.325191497802734 -10.984746932983398 0.368144661188126 0.000000000000000
-8.318265914916992 -5.851815700531006 0.721887886524200 0.000000000000000
-8.315604209899902 -8.583436012268066 0.710015952587128 0.000000000000000
-8.313840866088867 -7.042670249938965 0.060854431241751 0.000000000000000
-8.309096336364746 -9.784588813781738 0.540258884429932 0.000000000000000
-8.307513236999512 -11.579028129577637 0.380640417337418 0.000000000000000
-8.303037643432617 -11.289993286132812 0.616784811019897 0.000000000000000
-8.301101684570312 2.183639526367188 1.467205524444580 1.000000000000000
-8.299548149108887 -7.080471515655518 0.564101934432983 0.000000000000000
-8.286924362182617 -5.863998889923096 0.700983047485352 0.000000000000000
-8.281538009643555 -6.529106616973877 0.362737834453583 0.000000000000000
-8.278509140014648 -10.399314880371094 1.263494133949280 0.000000000000000
-8.278458595275879 -10.251549720764160 0.782844185829163 0.000000000000000
-8.276811599731445 -11.010866165161133 0.182726427912712 0.000000000000000
-8.276540756225586 -6.625542163848877 0.548197150230408 0.000000000000000
-8.274889945983887 -7.736466407775879 1.507471919059753 0.000000000000000
-8.272460937500000 -7.250155925750732 0.040317017585039 0.000000000000000
-8.269154548645020 -7.401791572570801 0.211154654622078 0.000000000000000
-8.262693405151367 -11.302777290344238 0.804834425449371 0.000000000000000
-8.259944915771484 -8.213370323181152 0.602314591407776 0.000000000000000
-8.257231712341309 -6.658939361572266 0.079611405730247 0.000000000000000
-8.257148742675781 -9.161487579345703 1.118088841438293 0.000000000000000
-8.255771636962891 -4.426334857940674 1.948444485664368 0.000000000000000
-8.250412940979004 -6.939620494842529 0.391549140214920 0.000000000000000
-8.248084068298340 -4.513635635375977 0.576718270778656 0.000000000000000
-8.240035057067871 -11.823245048522949 0.135827884078026 0.000000000000000
-8.230295181274414 7.311307430267334 0.930237114429474 1.000000000000000
-8.220288276672363 -6.633410453796387 0.525853216648102 0.000000000000000
-8.220161437988281 -10.097609519958496 0.547996044158936 0.000000000000000
-8.216496467590332 -11.732634544372559 0.355064153671265 0.000000000000000
-8.215180397033691 -6.393503189086914 0.678651750087738 0.000000000000000
-8.215171813964844 -9.399330139160156 0.117657184600830 0.000000000000000
-8.209313392639160 -9.177746772766113 0.921539187431335 0.000000000000000
-8.207428932189941 -11.562648773193359 0.596774101257324 0.000000000000000
-8.207040786743164 -10.503022193908691 0.535358130931854 0.000000000000000
-8.206945419311523 -8.511613845825195 1.573427081108093 0.000000000000000
-8.205604553222656 -11.029541015625000 0.367183446884155 0.000000000000000
-8.203169822692871 -8.156915664672852 0.420149505138397 0.000000000000000
-8.202294349670410 -6.948178768157959 0.225172907114029 0.000000000000000
-8.199807167053223 -7.048964500427246 0.247273489832878 0.000000000000000
-8.198269844055176 -8.152043342590332 0.242178142070770 0.000000000000000
-8.192110061645508 -4.486536026000977 0.771188139915466 0.000000000000000
-8.187724113464355 -10.091539382934570 0.922396600246429 0.000000000000000
-8.183998107910156 -7.492428779602051 0.083273768424988 0.000000000000000
