# This PCD file was generated using the MATLAB® pcwrite function
# from Computer Vision Toolbox®.
# .PCD v.7 - Point Cloud Data file format
VERSION .7
FIELDS x y z intensity
SIZE 8 8 8 8
TYPE F F F F
COUNT 1 1 1 1
WIDTH 642
HEIGHT 1
VIEWPOINT 0 0 0 1 0 0 0
POINTS 642
DATA ascii
2.763850450515747 -29.969690322875977 3.019983053207397 0.000000000000000
2.768906354904175 -10.010808944702148 -0.780978441238403 0.000000000000000
2.775116920471191 -22.892137527465820 2.619170904159546 0.000000000000000
2.779553413391113 -26.234245300292969 2.507683992385864 0.000000000000000
2.789693117141724 -14.585347175598145 -0.259203135967255 0.000000000000000
2.790935754776001 -21.453834533691406 0.245447397232056 0.000000000000000
2.811222791671753 -8.980509757995605 -0.182328730821609 0.000000000000000
2.812357664108276 -10.766756057739258 -0.001942202332430 0.000000000000000
2.818938732147217 -28.503837585449219 2.722682237625122 0.000000000000000
2.839004516601562 -10.038173675537109 -0.041876621544361 0.000000000000000
2.871259689331055 -18.103868484497070 3.133228540420532 0.000000000000000
2.873814105987549 -11.665788650512695 -0.186642199754715 0.000000000000000
2.876249313354492 -21.762157440185547 1.685214996337891 0.000000000000000
2.891601085662842 -14.900991439819336 -0.177506417036057 0.000000000000000
2.901303291320801 -12.301179885864258 -0.366276621818542 0.000000000000000
2.901318073272705 -9.197325706481934 -0.390718519687653 0.000000000000000
2.901818037033081 -10.952750205993652 -0.176017761230469 0.000000000000000
2.901919841766357 -15.209514617919922 -0.062156599014997 0.000000000000000
2.904702425003052 -12.079448699951172 -0.551124334335327 0.000000000000000
2.922687768936157 -7.606321334838867 -0.502666890621185 0.000000000000000
2.924294710159302 -15.041385650634766 0.173841550946236 0.000000000000000
2.931206941604614 -14.737515449523926 -0.233427017927170 0.000000000000000
2.931517601013184 -16.908319473266602 2.543233871459961 0.000000000000000
2.946085691452026 -26.909187316894531 2.573167562484741 0.000000000000000
2.958909273147583 -12.824614524841309 -0.255012243986130 0.000000000000000
2.974712133407593 -15.916740417480469 -0.344835638999939 0.000000000000000
2.987044095993042 -15.364143371582031 1.418918251991272 0.000000000000000
2.989928960800171 -13.168728828430176 -0.054208390414715 0.000000000000000
3.013353347778320 -15.063940048217773 -0.415693730115891 0.000000000000000
3.022835254669189 -15.081225395202637 1.299705028533936 0.000000000000000
3.026479959487915 -25.123447418212891 0.384271115064621 0.000000000000000
3.046898365020752 -13.004809379577637 -0.284453213214874 0.000000000000000
3.047208786010742 -16.799373626708984 0.292057543992996 0.000000000000000
3.056839466094971 -12.378978729248047 -0.173594877123833 0.000000000000000
3.061868667602539 -12.244966506958008 -0.390046268701553 0.000000000000000
3.105506658554077 -17.211412429809570 -0.305277496576309 0.000000000000000
3.109191894531250 -16.806798934936523 0.029831152409315 0.000000000000000
3.109995603561401 -38.519058227539062 2.147026300430298 0.000000000000000
3.111140727996826 -15.738347053527832 -0.187609553337097 0.000000000000000
3.118957042694092 -16.225482940673828 1.759916663169861 0.000000000000000
3.126711368560791 -15.895853042602539 0.339350968599319 0.000000000000000
3.135821819305420 -16.011524200439453 1.737885832786560 0.000000000000000
3.153632402420044 -15.526949882507324 0.027652982622385 0.000000000000000
3.154043197631836 -14.815714836120605 1.439883708953857 0.000000000000000
3.161561965942383 -11.805704116821289 -0.236802637577057 0.000000000000000
3.161580324172974 -26.864679336547852 3.072402238845825 0.000000000000000
3.172754049301147 -25.817665100097656 1.445182085037231 0.000000000000000
3.192104816436768 -14.846850395202637 2.020867109298706 0.000000000000000
3.203274488449097 -16.482481002807617 1.386361360549927 0.000000000000000
3.214618682861328 -15.363396644592285 1.174686312675476 0.000000000000000
3.219557285308838 -14.724232673645020 1.040728330612183 0.000000000000000
3.252011060714722 -34.047447204589844 2.980292320251465 0.000000000000000
3.262535333633423 -11.851021766662598 -0.049343124032021 0.000000000000000
3.267260074615479 -12.640832901000977 -0.554067373275757 0.000000000000000
3.268018007278442 -12.878214836120605 -0.206399932503700 0.000000000000000
3.282980680465698 -10.992216110229492 -0.002002241788432 0.000000000000000
3.294820785522461 -12.028985023498535 -0.313523113727570 0.000000000000000
3.297774314880371 -11.563137054443359 -0.302264839410782 0.000000000000000
3.298840999603271 -17.111335754394531 0.867538511753082 0.000000000000000
3.300441503524780 -16.327175140380859 1.246630311012268 0.000000000000000
3.304654359817505 -14.903868675231934 1.733925461769104 0.000000000000000
3.312427282333374 -16.424842834472656 1.221628665924072 0.000000000000000
3.336590528488159 -13.592350959777832 -0.056183397769928 0.000000000000000
3.337698936462402 -17.959615707397461 -0.178545758128166 0.000000000000000
3.338585138320923 -17.648698806762695 1.448319554328918 0.000000000000000
3.344996690750122 -15.191161155700684 3.235460281372070 0.000000000000000
3.345188617706299 -15.306478500366211 0.087506175041199 0.000000000000000
3.346001386642456 -16.184249877929688 1.760340213775635 0.000000000000000
3.362873554229736 -27.396282196044922 3.379308223724365 0.000000000000000
3.370766878128052 -15.685811996459961 1.076885223388672 0.000000000000000
3.371710062026978 -31.596858978271484 3.384683132171631 0.000000000000000
3.373704195022583 -15.470607757568359 1.798479318618774 0.000000000000000
3.384613275527954 -17.892017364501953 -0.492730170488358 0.000000000000000
3.386914014816284 -16.098518371582031 1.752290487289429 0.000000000000000
3.392754077911377 -12.785922050476074 -0.790545761585236 0.000000000000000
3.395047903060913 -16.248342514038086 2.837361097335815 0.000000000000000
3.411954879760742 -20.112901687622070 0.897828996181488 0.000000000000000
3.419724702835083 -15.819524765014648 1.336331248283386 0.000000000000000
3.422442674636841 -11.697772979736328 -0.306386142969131 0.000000000000000
3.439891576766968 -18.538326263427734 2.141562938690186 0.000000000000000
3.452259540557861 -21.176702499389648 2.152966022491455 0.000000000000000
3.462840557098389 -15.907361984252930 1.734072923660278 0.000000000000000
3.464452266693115 -17.138530731201172 1.662073969841003 0.000000000000000
3.466296911239624 -31.442569732666016 3.369431018829346 0.000000000000000
3.471874237060547 -20.448814392089844 3.073929309844971 0.000000000000000
3.492960453033447 -19.409168243408203 0.526744782924652 0.000000000000000
3.514384746551514 -21.270145416259766 -0.252110570669174 0.000000000000000
3.516341686248779 -13.507176399230957 -0.270432323217392 0.000000000000000
3.524864912033081 -10.625845909118652 -0.130919754505157 0.000000000000000
3.525698900222778 -15.601583480834961 1.351571917533875 0.000000000000000
3.526159763336182 -21.164524078369141 2.152966022491455 0.000000000000000
3.530822992324829 -15.413911819458008 0.300866872072220 0.000000000000000
3.551856040954590 -13.450836181640625 -0.055846203118563 0.000000000000000
3.561554908752441 -27.656734466552734 2.302373409271240 0.000000000000000
3.567151069641113 -14.787741661071777 0.055754769593477 0.000000000000000
3.573186635971069 -20.626428604125977 1.989870905876160 1.000000000000000
3.574617147445679 -16.086845397949219 -0.161070391535759 0.000000000000000
3.586736917495728 -17.141834259033203 1.664723634719849 0.000000000000000
3.593988418579102 -8.247491836547852 -0.885289907455444 1.000000000000000
3.605226039886475 -11.860239028930664 -0.311613202095032 0.000000000000000
3.613916397094727 -15.167273521423340 -0.062590137124062 0.000000000000000
3.616549015045166 -21.318948745727539 1.618290901184082 0.000000000000000
3.619099855422974 -17.602804183959961 1.708253145217896 0.000000000000000
3.621604442596436 -15.810221672058105 1.842267751693726 0.000000000000000
3.625938892364502 -31.868949890136719 3.416458129882812 0.000000000000000
3.628149986267090 -8.247159004211426 -0.330379694700241 1.000000000000000
3.628577709197998 -8.248912811279297 -0.070779353380203 1.000000000000000
3.638817071914673 -30.344839096069336 2.905128240585327 0.000000000000000
3.640188455581665 -8.274523735046387 -0.053644120693207 1.000000000000000
3.640270709991455 -15.498463630676270 1.513316273689270 0.000000000000000
3.641880035400391 -19.368581771850586 -0.003439694875851 0.000000000000000
3.658324003219604 -30.507511138916016 2.299519538879395 0.000000000000000
3.674511194229126 -20.714433670043945 0.966360032558441 0.000000000000000
3.681784868240356 -18.937608718872070 3.297674179077148 0.000000000000000
3.686382770538330 -15.235351562500000 0.177834779024124 0.000000000000000
3.726867914199829 -16.851167678833008 1.838295102119446 0.000000000000000
3.742193460464478 -10.687222480773926 -0.110677249729633 0.000000000000000
3.746558666229248 -14.600343704223633 2.576539754867554 0.000000000000000
3.750263929367065 -17.442914962768555 1.231955647468567 0.000000000000000
3.753387928009033 -18.428733825683594 2.136145830154419 0.000000000000000
3.772390604019165 -15.241241455078125 0.298736274242401 0.000000000000000
3.783537387847900 -17.725587844848633 0.832556366920471 0.000000000000000
3.790290355682373 -16.285226821899414 1.899147272109985 0.000000000000000
3.794238567352295 -16.153982162475586 1.241853952407837 0.000000000000000
3.803514003753662 -11.313668251037598 -0.047914050519466 0.000000000000000
3.806887865066528 -21.277090072631836 1.826457619667053 0.000000000000000
3.809844493865967 -15.147481918334961 -0.152665019035339 0.000000000000000
3.814869165420532 -17.571699142456055 0.825948715209961 0.000000000000000
3.824560165405273 -16.051326751708984 2.820512533187866 0.000000000000000
3.829844474792480 -32.646179199218750 3.501191616058350 0.000000000000000
3.848156452178955 -12.659416198730469 -0.129325449466705 0.000000000000000
3.851076841354370 -30.322647094726562 2.905506849288940 0.000000000000000
3.852809667587280 -11.045759201049805 -0.361506313085556 0.000000000000000
3.864354133605957 -30.203636169433594 2.396454811096191 0.000000000000000
3.872101783752441 -18.320549011230469 1.582278847694397 0.000000000000000
3.878715038299561 -19.187873840332031 0.560484170913696 0.000000000000000
3.892673969268799 -18.468870162963867 2.143819808959961 0.000000000000000
3.929984569549561 -15.204873085021973 0.781818866729736 0.000000000000000
3.937058687210083 -19.879964828491211 3.464141845703125 0.000000000000000
3.942063093185425 -16.817634582519531 2.952607870101929 0.000000000000000
3.943519115447998 -15.148075103759766 2.675611495971680 0.000000000000000
3.962158679962158 -15.285305976867676 1.029427289962769 0.000000000000000
3.970982551574707 -19.154943466186523 2.221916675567627 0.000000000000000
3.973656892776489 -15.345096588134766 -0.154932513833046 0.000000000000000
3.986273527145386 -17.762184143066406 -0.003177197417244 0.000000000000000
4.019981384277344 -14.777629852294922 0.203153163194656 0.000000000000000
4.036492824554443 -16.020235061645508 1.077047467231750 0.000000000000000
4.050887584686279 -11.191674232482910 -0.482204616069794 0.000000000000000
4.054632663726807 -14.786758422851562 -0.591698586940765 0.000000000000000
4.060320854187012 -15.078554153442383 1.663320302963257 0.000000000000000
4.071554660797119 -15.220746994018555 2.335060358047485 0.000000000000000
4.075491428375244 -15.882195472717285 1.486451387405396 0.000000000000000
4.098565101623535 -11.883552551269531 -0.195278435945511 0.000000000000000
4.099638462066650 -12.996062278747559 -0.133195832371712 0.000000000000000
4.104020595550537 -14.881288528442383 1.155282378196716 0.000000000000000
4.104932785034180 -32.439224243164062 2.964235305786133 0.000000000000000
4.105891227722168 -14.533143043518066 1.071928501129150 0.000000000000000
4.141986370086670 -14.826930046081543 1.463351845741272 0.000000000000000
4.149835109710693 -31.925779342651367 1.788670897483826 1.000000000000000
4.157113552093506 -17.583084106445312 2.052180528640747 0.000000000000000
4.175044059753418 -14.284934997558594 -0.402710050344467 0.000000000000000
4.189054489135742 -31.952594757080078 1.480283737182617 0.000000000000000
4.198282718658447 -22.428997039794922 0.258879154920578 0.000000000000000
4.208931922912598 -18.083946228027344 -0.787939131259918 0.000000000000000
4.223261356353760 -33.008838653564453 1.592631340026855 0.000000000000000
4.224664688110352 -17.368471145629883 1.903963804244995 0.000000000000000
4.234794139862061 -15.443784713745117 1.105756640434265 0.000000000000000
4.237955093383789 -18.208646774291992 1.507474064826965 0.000000000000000
4.257552623748779 -16.189674377441406 1.155905604362488 0.000000000000000
4.259752750396729 -15.888739585876465 1.563659191131592 0.000000000000000
4.267902851104736 -15.826334953308105 0.816027164459229 0.000000000000000
4.272570133209229 -14.698618888854980 1.455024480819702 0.000000000000000
4.283062934875488 -32.923767089843750 1.908554673194885 0.000000000000000
4.296983242034912 -19.887779235839844 0.230835810303688 0.000000000000000
4.300252437591553 -14.890766143798828 -0.151492178440094 0.000000000000000
4.308690547943115 -18.856584548950195 2.060297250747681 0.000000000000000
4.311717987060547 -15.850067138671875 1.229315876960754 0.000000000000000
4.332796096801758 -25.406635284423828 0.737924993038177 0.000000000000000
4.339467048645020 -12.167147636413574 -0.399188965559006 0.000000000000000
4.342329025268555 -15.337291717529297 1.515208959579468 0.000000000000000
4.346197605133057 -18.973453521728516 -0.526704072952271 0.000000000000000
4.347258567810059 -13.236270904541016 -0.055926486849785 0.000000000000000
4.354156494140625 -15.675084114074707 2.164913415908813 0.000000000000000
4.357668399810791 -19.833013534545898 1.480497598648071 0.000000000000000
4.375452518463135 -15.399918556213379 1.705263376235962 0.000000000000000
4.382075786590576 -19.944097518920898 3.490426301956177 0.000000000000000
4.385093212127686 -20.395578384399414 1.762802720069885 0.000000000000000
4.389005184173584 -15.298215866088867 3.310400485992432 0.000000000000000
4.394279956817627 -15.003927230834961 2.080490589141846 0.000000000000000
4.397522449493408 -15.348111152648926 1.318228125572205 0.000000000000000
4.439818382263184 -15.561358451843262 1.367401480674744 0.000000000000000
4.439919948577881 -21.065288543701172 0.409602016210556 0.000000000000000
4.446875572204590 -13.381834030151367 -0.273221880197525 0.000000000000000
4.477990150451660 -22.611368179321289 0.261511057615280 0.000000000000000
4.478771686553955 -16.705673217773438 1.294394016265869 0.000000000000000
4.487399101257324 -16.874364852905273 0.332216680049896 0.000000000000000
4.488092422485352 -21.026376724243164 2.157358884811401 0.000000000000000
4.516104221343994 -16.404558181762695 1.240534901618958 0.000000000000000
4.557380676269531 -16.313903808593750 0.224694088101387 0.000000000000000
4.560863494873047 -18.588117599487305 1.667755484580994 0.000000000000000
4.562670230865479 -14.580898284912109 1.331287622451782 0.000000000000000
4.600983142852783 -14.667394638061523 2.278179407119751 0.000000000000000
4.608746528625488 -34.127407073974609 3.668116807937622 0.000000000000000
4.636806964874268 -16.410171508789062 2.087763071060181 0.000000000000000
4.666093349456787 -15.913479804992676 0.825573682785034 0.000000000000000
4.686238765716553 -18.262279510498047 1.374623179435730 0.000000000000000
4.708891391754150 -14.621748924255371 0.971833825111389 0.000000000000000
4.726392745971680 -17.286258697509766 0.340967237949371 0.000000000000000
4.727248668670654 -14.282172203063965 1.038799524307251 0.000000000000000
4.728576183319092 -15.685541152954102 1.162837147712708 0.000000000000000
4.745630741119385 -18.408290863037109 0.471238136291504 0.000000000000000
4.756139755249023 -15.692688941955566 0.280495673418045 0.000000000000000
4.759148597717285 -15.702617645263672 0.028637347742915 0.000000000000000
4.777182102203369 -14.486407279968262 0.260929375886917 0.000000000000000
4.782907009124756 -16.273990631103516 1.400514483451843 0.000000000000000
4.785551071166992 -14.575910568237305 1.088920831680298 0.000000000000000
4.791033744812012 -24.923982620239258 0.434152543544769 0.000000000000000
4.794526100158691 -16.194351196289062 1.361838340759277 0.000000000000000
4.796185016632080 -21.781671524047852 2.120081186294556 0.000000000000000
4.797821521759033 -16.326837539672852 1.207866668701172 0.000000000000000
4.797958374023438 -16.238212585449219 1.803554296493530 0.000000000000000
4.811626434326172 -17.547422409057617 1.537484526634216 0.000000000000000
4.827547550201416 -14.250905990600586 1.271413922309875 0.000000000000000
4.830672740936279 -16.871006011962891 2.148524522781372 0.000000000000000
4.849997520446777 -19.383090972900391 0.879362344741821 0.000000000000000
4.855513572692871 -16.358377456665039 1.112437129020691 0.000000000000000
4.861786842346191 -18.954641342163086 0.785941064357758 0.000000000000000
4.868219852447510 -17.445407867431641 1.320522546768188 0.000000000000000
4.872631549835205 -14.726578712463379 0.086634904146194 0.000000000000000
4.873672485351562 -22.729780197143555 -0.271849095821381 0.000000000000000
4.889431953430176 -15.715545654296875 1.327117323875427 0.000000000000000
4.893148899078369 -17.379983901977539 1.525696635246277 0.000000000000000
4.895731449127197 -19.554260253906250 0.499686896800995 0.000000000000000
4.895804882049561 -15.906151771545410 1.117067575454712 0.000000000000000
4.904375553131104 -4.842959880828857 -0.518252968788147 1.000000000000000
4.931993484497070 -16.908819198608398 0.301293373107910 0.000000000000000
4.936233520507812 -22.097927093505859 0.256882548332214 0.000000000000000
4.942178726196289 -17.554132461547852 1.259234428405762 0.000000000000000
4.969826698303223 -29.395843505859375 2.116102933883667 1.000000000000000
4.980278968811035 -19.108644485473633 1.877072334289551 0.000000000000000
4.983319282531738 -15.172910690307617 0.426565051078796 0.000000000000000
5.009228706359863 -24.364200592041016 0.329958081245422 0.000000000000000
5.015729904174805 -15.453350067138672 0.184323787689209 0.000000000000000
5.025830268859863 -17.290006637573242 1.347530961036682 0.000000000000000
5.036689281463623 -14.478045463562012 -0.297010630369186 0.000000000000000
5.075634479522705 -14.775888442993164 1.912770152091980 0.000000000000000
5.088705539703369 -16.873760223388672 3.012590408325195 0.000000000000000
5.103476047515869 -19.304967880249023 1.494403958320618 0.000000000000000
5.108269691467285 -23.424709320068359 -0.648750543594360 0.000000000000000
5.120610713958740 -26.071058273315430 3.017779827117920 0.000000000000000
5.136862754821777 -26.153802871704102 2.149171352386475 0.000000000000000
5.138522148132324 -17.696136474609375 1.343500733375549 0.000000000000000
5.144697666168213 -20.195226669311523 0.396514236927032 0.000000000000000
5.179338455200195 -21.862415313720703 1.855064511299133 0.000000000000000
5.188712120056152 -22.237379074096680 3.038687705993652 0.000000000000000
5.192639350891113 -17.281663894653320 2.401296615600586 0.000000000000000
5.193137168884277 -16.166971206665039 3.531963109970093 0.000000000000000
5.198767662048340 9.563800811767578 -1.050069093704224 0.000000000000000
5.215356349945068 -27.052442550659180 2.221506834030151 0.000000000000000
5.217152118682861 -17.735500335693359 1.347863674163818 0.000000000000000
5.230528831481934 -17.189805984497070 1.518287181854248 0.000000000000000
5.232122898101807 9.545594215393066 -1.050069093704224 0.000000000000000
5.247933864593506 -17.401748657226562 -0.072962947189808 0.000000000000000
5.250215053558350 -31.001632690429688 2.850476503372192 0.000000000000000
5.252350330352783 -20.152545928955078 1.558586359024048 0.000000000000000
5.271253585815430 -16.609043121337891 1.656396269798279 0.000000000000000
5.283572673797607 -14.597299575805664 1.900617837905884 0.000000000000000
5.285510540008545 -7.333665847778320 -0.540234088897705 1.000000000000000
5.304266452789307 -21.286911010742188 3.749899864196777 0.000000000000000
5.305640220642090 -15.192164421081543 0.028085824102163 0.000000000000000
5.316856384277344 -17.410217285156250 3.111661911010742 0.000000000000000
5.319715976715088 -26.822294235229492 2.599285364151001 0.000000000000000
5.330425739288330 -15.861010551452637 -0.613562285900116 0.000000000000000
5.330588340759277 -15.678230285644531 1.367270827293396 0.000000000000000
5.341788291931152 -30.569259643554688 3.524730682373047 0.000000000000000
5.360879898071289 -22.870592117309570 0.266502588987350 0.000000000000000
5.361414909362793 -16.919761657714844 1.294053912162781 0.000000000000000
5.368999004364014 -15.878443717956543 1.351550579071045 0.000000000000000
5.369065761566162 -19.873813629150391 2.520384550094604 0.000000000000000
5.371984004974365 -25.487487792968750 2.100304603576660 0.000000000000000
5.396164894104004 -18.325151443481445 3.973458290100098 0.000000000000000
5.408821582794189 -16.211324691772461 1.081190347671509 0.000000000000000
5.427518844604492 -15.689676284790039 -0.449234902858734 0.000000000000000
5.448020935058594 -15.947772026062012 1.795080900192261 0.000000000000000
5.475440025329590 -17.771699905395508 2.474638938903809 0.000000000000000
5.476005077362061 -14.635334968566895 2.079435348510742 0.000000000000000
5.476428508758545 -24.069578170776367 2.346435070037842 0.000000000000000
5.481538772583008 -15.817238807678223 1.155905604362488 0.000000000000000
5.487999439239502 -14.479227066040039 1.895756840705872 0.000000000000000
5.503550529479980 -25.667398452758789 2.116700410842896 0.000000000000000
5.508746147155762 -17.463005065917969 2.241853952407837 0.000000000000000
5.522010803222656 -14.386831283569336 3.205321311950684 0.000000000000000
5.522494792938232 -17.192308425903320 1.351411819458008 0.000000000000000
5.524051189422607 -14.243327140808105 3.177626132965088 0.000000000000000
5.531344413757324 -17.888774871826172 3.200624227523804 0.000000000000000
5.539032459259033 -30.096961975097656 2.290265321731567 0.000000000000000
5.557643413543701 -14.704772949218750 1.328332901000977 0.000000000000000
5.560727119445801 -15.880720138549805 1.129390120506287 0.000000000000000
5.571592807769775 -26.015745162963867 -0.873303830623627 0.000000000000000
5.598486423492432 -15.935032844543457 2.067833423614502 0.000000000000000
5.601371765136719 -22.422513961791992 3.425185203552246 0.000000000000000
5.608679771423340 -16.368555068969727 1.194757342338562 0.000000000000000
5.624163627624512 -16.061887741088867 1.405122518539429 0.000000000000000
5.636022567749023 -16.846246719360352 1.192342400550842 0.000000000000000
5.647948265075684 -17.749757766723633 0.891445219516754 0.000000000000000
5.658749103546143 -17.407573699951172 3.807286500930786 0.000000000000000
5.675283908843994 -16.499059677124023 -0.070040576159954 0.000000000000000
5.699993133544922 -14.923680305480957 2.125867843627930 0.000000000000000
5.702714920043945 -16.105752944946289 1.146802425384521 0.000000000000000
5.705157279968262 -16.847410202026367 2.177689790725708 0.000000000000000
5.716183185577393 -26.600170135498047 2.246418714523315 0.000000000000000
5.740162849426270 -18.005830764770508 1.523870110511780 0.000000000000000
5.740513801574707 -16.783870697021484 1.430316090583801 0.000000000000000
5.747648239135742 -8.555984497070312 -0.120535977184772 0.000000000000000
5.752176284790039 -16.927890777587891 2.188870191574097 0.000000000000000
5.755083560943604 -28.449754714965820 2.529238224029541 0.000000000000000
5.762577056884766 -29.055223464965820 2.216828584671021 0.000000000000000
5.774921417236328 -22.129087448120117 3.389414787292480 0.000000000000000
5.783421516418457 -16.019315719604492 1.340395331382751 0.000000000000000
5.815745830535889 -29.841548919677734 2.275339126586914 0.000000000000000
5.817390918731689 -22.030387878417969 3.894800662994385 0.000000000000000
5.826422214508057 -16.297657012939453 1.395594954490662 0.000000000000000
5.839953422546387 -15.731731414794922 2.486938953399658 0.000000000000000
5.847825527191162 -22.303270339965820 1.859185934066772 0.000000000000000
5.870675086975098 -17.980480194091797 1.525156140327454 0.000000000000000
5.916307926177979 -19.304353713989258 2.025968551635742 0.000000000000000
5.922559738159180 -30.463245391845703 2.262630939483643 0.000000000000000
5.962752342224121 -19.283979415893555 0.539133787155151 0.000000000000000
5.980250358581543 -14.368043899536133 3.237089633941650 0.000000000000000
6.007588863372803 -20.175197601318359 0.238822281360626 0.000000000000000
6.024141311645508 -20.611631393432617 2.439052343368530 0.000000000000000
6.033348083496094 -29.790552139282227 3.049935340881348 0.000000000000000
6.063933849334717 -24.639636993408203 3.760608196258545 0.000000000000000
6.079159736633301 -17.074146270751953 3.769816398620605 0.000000000000000
6.081147670745850 -24.375654220581055 2.388072252273560 0.000000000000000
6.094607353210449 -29.643331527709961 2.264890670776367 0.000000000000000
6.096456527709961 -17.623416900634766 2.118088722229004 0.000000000000000
6.105103015899658 -21.978538513183594 1.927497029304504 0.000000000000000
6.115096569061279 -14.837801933288574 3.338095664978027 0.000000000000000
6.129219532012939 -20.183763504028320 1.050115346908569 0.000000000000000
6.134372711181641 -22.006439208984375 1.990681290626526 0.000000000000000
6.140473365783691 -14.992886543273926 1.056229829788208 0.000000000000000
6.163239955902100 10.620185852050781 -1.184496283531189 0.000000000000000
6.173988819122314 -20.216924667358398 0.239820569753647 0.000000000000000
6.178322315216064 10.565321922302246 -1.180655479431152 0.000000000000000
6.187125682830811 -30.010986328125000 3.074695825576782 0.000000000000000
6.211553573608398 -25.065956115722656 2.132205009460449 0.000000000000000
6.232686519622803 -19.674127578735352 1.703986644744873 0.000000000000000
6.258380889892578 -34.685348510742188 2.637745380401611 0.000000000000000
6.271646022796631 -22.423213958740234 2.028876781463623 0.000000000000000
6.295042037963867 -24.664051055908203 1.708550810813904 0.000000000000000
6.299376487731934 -15.660710334777832 1.100467085838318 0.000000000000000
6.328372001647949 -27.134485244750977 -0.272334069013596 0.000000000000000
6.334234237670898 -17.442935943603516 2.271991729736328 0.000000000000000
6.365752696990967 -20.179759979248047 1.747104763984680 0.000000000000000
6.377292633056641 -21.496313095092773 2.983813047409058 0.000000000000000
6.436585903167725 -20.743251800537109 2.179323911666870 0.000000000000000
6.499978542327881 -19.674846649169922 1.670791745185852 0.000000000000000
6.518010616302490 -27.210123062133789 0.478621363639832 0.000000000000000
6.522842407226562 -27.533454895019531 0.158033862709999 0.000000000000000
6.538618564605713 -27.408048629760742 2.108763456344604 0.000000000000000
6.546069622039795 -27.021060943603516 2.642815113067627 0.000000000000000
6.550422668457031 -17.975660324096680 -0.959141075611115 0.000000000000000
6.578955650329590 -25.649364471435547 2.307356834411621 0.000000000000000
6.609635353088379 -24.854799270629883 2.921174526214600 0.000000000000000
6.664577960968018 -19.140213012695312 1.516793251037598 1.000000000000000
6.684684276580811 -14.236620903015137 2.688416719436646 0.000000000000000
6.690427780151367 -24.764886856079102 2.118052005767822 0.000000000000000
6.706664085388184 -16.294183731079102 3.011916399002075 0.000000000000000
6.720148086547852 -19.052101135253906 2.027166604995728 0.000000000000000
6.725235939025879 -18.606662750244141 -0.535359919071198 0.000000000000000
6.727020263671875 -33.120571136474609 3.599906444549561 0.000000000000000
6.738081932067871 -20.159053802490234 2.414223670959473 0.000000000000000
6.751393795013428 -16.241548538208008 3.006524801254272 0.000000000000000
6.752909183502197 -14.252393722534180 2.695830106735229 0.000000000000000
6.763749599456787 -25.796552658081055 3.029065370559692 0.000000000000000
6.772530078887939 -18.829986572265625 1.458973765373230 0.000000000000000
6.777033805847168 -34.774074554443359 3.367677450180054 0.000000000000000
6.806176185607910 -18.124818801879883 1.755139350891113 0.000000000000000
6.808601379394531 -18.591297149658203 0.452755540609360 0.000000000000000
6.811826229095459 -20.863002777099609 2.492771863937378 0.000000000000000
6.816003322601318 -26.410655975341797 0.466580569744110 1.000000000000000
6.822046279907227 -29.940256118774414 2.675770044326782 0.000000000000000
6.831656932830811 -18.464405059814453 1.055909633636475 1.000000000000000
6.833916187286377 -20.586683273315430 -0.170366838574409 0.000000000000000
6.847656726837158 -22.038114547729492 2.458121299743652 0.000000000000000
6.870939254760742 -19.191898345947266 1.054050564765930 0.000000000000000
6.886936187744141 -28.868097305297852 2.821097135543823 0.000000000000000
6.889404773712158 -19.366943359375000 -0.082516863942146 0.000000000000000
6.907232761383057 -17.946195602416992 1.216560125350952 0.000000000000000
6.921559333801270 -19.674558639526367 0.557076394557953 0.000000000000000
6.938639163970947 -17.992183685302734 1.182823538780212 0.000000000000000
6.949124336242676 -19.062530517578125 0.308109283447266 0.000000000000000
6.962814807891846 -30.188106536865234 3.792972087860107 0.000000000000000
6.971755504608154 -7.285590171813965 -1.480430841445923 1.000000000000000
6.985969066619873 -19.857643127441406 0.238822281360626 0.000000000000000
6.999558448791504 -19.533971786499023 1.112893104553223 0.000000000000000
7.009087562561035 -9.422618865966797 -0.092236213386059 0.000000000000000
7.010247230529785 -19.158468246459961 1.054876804351807 0.000000000000000
7.018062591552734 -20.547210693359375 -0.378996461629868 0.000000000000000
7.022675037384033 -18.311883926391602 -0.380000025033951 1.000000000000000
7.030070781707764 -18.220745086669922 1.009847760200500 1.000000000000000
7.038520812988281 -18.337886810302734 0.260560244321823 0.000000000000000
7.041404247283936 -18.914564132690430 0.927081584930420 0.000000000000000
7.044967651367188 -9.485363006591797 -1.482157945632935 0.000000000000000
7.046177864074707 -19.590822219848633 -0.723392665386200 0.000000000000000
7.050021171569824 -31.876926422119141 0.558459997177124 1.000000000000000
7.051836490631104 -18.403293609619141 0.791559517383575 0.000000000000000
7.058182239532471 -23.354255676269531 3.615766763687134 0.000000000000000
7.059211730957031 -26.603322982788086 0.470822215080261 0.000000000000000
7.061259269714355 -23.008695602416992 2.563614606857300 0.000000000000000
7.064983367919922 -18.945531845092773 0.035290539264679 1.000000000000000
7.069908618927002 -20.304296493530273 -0.045029461383820 0.000000000000000
7.074030399322510 -18.430402755737305 -0.647990107536316 0.000000000000000
7.076185703277588 -19.600101470947266 1.318340063095093 1.000000000000000
7.082377910614014 -19.404914855957031 0.353356122970581 0.000000000000000
7.086330413818359 -19.185651779174805 -0.553428828716278 0.000000000000000
7.087830066680908 -29.918313980102539 3.764292716979980 0.000000000000000
7.096225738525391 -19.568946838378906 0.076294459402561 1.000000000000000
7.122147083282471 -19.091699600219727 -0.355680048465729 0.000000000000000
7.127615928649902 -26.201433181762695 2.581116437911987 0.000000000000000
7.128166198730469 -28.374221801757812 3.322943449020386 0.000000000000000
7.158837318420410 -19.354932785034180 1.067063570022583 0.000000000000000
7.192258358001709 -20.341897964477539 -1.247839570045471 0.000000000000000
7.201819896697998 -19.367176055908203 1.964131593704224 1.000000000000000
7.213165283203125 -19.085060119628906 1.094255685806274 0.000000000000000
7.224958896636963 -19.326080322265625 1.066856980323792 0.000000000000000
7.228609085083008 -17.670835494995117 0.546632289886475 0.000000000000000
7.242562770843506 -19.168909072875977 0.429235845804214 1.000000000000000
7.245310783386230 -19.294233322143555 0.867408096790314 0.000000000000000
7.256591320037842 -39.107353210449219 3.207200050354004 0.000000000000000
7.270963668823242 -20.564500808715820 0.415004521608353 0.000000000000000
7.272632598876953 -19.535686492919922 -0.323827952146530 0.000000000000000
7.275539398193359 -20.008934020996094 0.241544932126999 0.000000000000000
7.277377605438232 -25.858909606933594 3.288895130157471 0.000000000000000
7.300898075103760 -20.470508575439453 0.330034673213959 0.000000000000000
7.304329395294189 -18.412940979003906 0.871799886226654 0.000000000000000
7.307850837707520 -20.325044631958008 -1.457316517829895 0.000000000000000
7.308411598205566 -21.992958068847656 0.975392639636993 0.000000000000000
7.308853149414062 -18.392492294311523 0.985278785228729 0.000000000000000
7.309173583984375 -19.516036987304688 0.076382420957088 0.000000000000000
7.312108516693115 -21.378833770751953 2.566354274749756 0.000000000000000
7.353550434112549 -17.982528686523438 0.033908240497112 1.000000000000000
7.356821060180664 -20.325208663940430 0.120725899934769 0.000000000000000
7.358258724212646 -17.877265930175781 -0.374575883150101 0.000000000000000
7.360441684722900 -17.971620559692383 0.369501650333405 0.000000000000000
7.360561847686768 -18.355312347412109 2.106476783752441 1.000000000000000
7.363246917724609 -17.942741394042969 1.264405250549316 0.000000000000000
7.366611480712891 -24.071054458618164 3.730701923370361 0.000000000000000
7.366722106933594 -19.010251998901367 -0.708391487598419 0.000000000000000
7.370102405548096 -19.853662490844727 0.524963676929474 0.000000000000000
7.378334999084473 -20.496358871459961 -0.045624267309904 0.000000000000000
7.383782863616943 -22.219770431518555 0.265640407800674 0.000000000000000
7.384498596191406 -23.991756439208984 0.525822281837463 0.000000000000000
7.384876728057861 -18.135889053344727 1.706298112869263 1.000000000000000
7.385368824005127 -20.481121063232422 -0.003799930913374 0.000000000000000
7.387552738189697 -17.925317764282227 -0.040606100112200 0.000000000000000
7.388746738433838 -17.951337814331055 1.415344119071960 0.000000000000000
7.404951095581055 -27.082788467407227 2.263943672180176 0.000000000000000
7.406750679016113 -18.993410110473633 -0.473314553499222 1.000000000000000
7.411559104919434 -19.070615768432617 0.900467157363892 1.000000000000000
7.440186977386475 -5.380060195922852 -1.347959041595459 1.000000000000000
7.446368694305420 -24.168767929077148 2.136985778808594 0.000000000000000
7.449946880340576 -19.302972793579102 1.428693890571594 0.000000000000000
7.451063632965088 -18.346086502075195 2.635041952133179 1.000000000000000
7.460175991058350 -19.102832794189453 0.075165584683418 1.000000000000000
7.466028213500977 -33.906650543212891 2.598340511322021 0.000000000000000
7.469584941864014 -26.738624572753906 2.077717065811157 0.000000000000000
7.472975730895996 -17.196512222290039 -0.471340119838715 0.000000000000000
7.485452175140381 -17.670623779296875 1.584506869316101 1.000000000000000
7.489233016967773 -25.173471450805664 3.215495347976685 0.000000000000000
7.492351531982422 -17.279869079589844 -0.256417244672775 0.000000000000000
7.498477458953857 -17.747920989990234 0.440593063831329 1.000000000000000
7.510762691497803 -27.851579666137695 3.276446580886841 0.000000000000000
7.510805606842041 -17.788358688354492 -0.856556057929993 0.000000000000000
7.533613204956055 -13.182156562805176 3.158076524734497 0.000000000000000
7.537835597991943 -20.408065795898438 -1.258232474327087 0.000000000000000
7.543386936187744 -7.022515773773193 -1.054138660430908 1.000000000000000
7.556814193725586 -20.430919647216797 0.121664181351662 1.000000000000000
7.588284015655518 -17.841367721557617 1.525872707366943 1.000000000000000
7.592703342437744 -19.523588180541992 1.002541184425354 1.000000000000000
7.594487667083740 -26.852647781372070 2.034593582153320 0.000000000000000
7.601646423339844 -18.353801727294922 -0.499385327100754 1.000000000000000
7.601890087127686 -18.857015609741211 -0.120651803910732 0.000000000000000
7.606647491455078 -21.872810363769531 1.643718123435974 0.000000000000000
7.611464023590088 -19.334699630737305 -0.841834068298340 0.000000000000000
7.616836547851562 -4.807538509368896 -0.399560719728470 1.000000000000000
7.617376804351807 -19.565809249877930 -0.568143665790558 0.000000000000000
7.619151592254639 -23.162874221801758 1.824868559837341 0.000000000000000
7.621140956878662 -19.396018981933594 1.640109062194824 0.000000000000000
7.622394561767578 -17.579792022705078 -0.849997162818909 1.000000000000000
7.623389720916748 -19.965774536132812 0.119363151490688 0.000000000000000
7.637845993041992 -19.470472335815430 2.098652601242065 0.000000000000000
7.639947414398193 -19.085773468017578 1.791370153427124 1.000000000000000
7.648360252380371 -19.246850967407227 2.352378606796265 1.000000000000000
7.648878574371338 -22.996046066284180 2.303662538528442 1.000000000000000
7.658178329467773 -34.123592376708984 3.509202718734741 0.000000000000000
7.658256053924561 -17.729436874389648 1.408072471618652 0.000000000000000
7.661985397338867 -19.038658142089844 1.021674752235413 1.000000000000000
7.663674354553223 -19.090944290161133 2.336578607559204 0.000000000000000
7.664933204650879 -19.779804229736328 1.923069357872009 1.000000000000000
7.671746730804443 -18.341695785522461 -1.418147325515747 1.000000000000000
7.686265945434570 -20.451141357421875 -1.389863014221191 0.000000000000000
7.691993236541748 -17.695438385009766 0.441233187913895 0.000000000000000
7.698594093322754 -24.857845306396484 2.473617315292358 0.000000000000000
7.700146198272705 -19.150848388671875 0.789336085319519 0.000000000000000
7.703037261962891 -19.810367584228516 0.608564913272858 1.000000000000000
7.725733280181885 -33.415935516357422 3.260178565979004 0.000000000000000
7.734438419342041 -17.424188613891602 -0.405984550714493 1.000000000000000
7.738733291625977 -25.299629211425781 2.514875888824463 0.000000000000000
7.759591102600098 -18.332021713256836 -0.232793003320694 1.000000000000000
7.771501064300537 -19.646602630615234 -0.084813006222248 1.000000000000000
7.774164676666260 -20.445201873779297 -0.339795678853989 0.000000000000000
7.788581848144531 -19.567867279052734 1.779642701148987 1.000000000000000
7.796088218688965 -19.509384155273438 0.884228169918060 0.000000000000000
7.804967880249023 -19.358810424804688 1.723406314849854 0.000000000000000
7.806941509246826 -24.350807189941406 1.815056800842285 0.000000000000000
7.808376789093018 -25.262245178222656 1.876795291900635 0.000000000000000
7.810325622558594 -19.877498626708984 0.365328490734100 0.000000000000000
7.815754890441895 -16.746442794799805 0.848891735076904 1.000000000000000
7.823112487792969 -18.365890502929688 -1.154534459114075 1.000000000000000
7.823931217193604 -19.874408721923828 -0.208765983581543 1.000000000000000
7.824657440185547 -19.175647735595703 1.968673825263977 1.000000000000000
7.828217506408691 -19.305629730224609 1.679793596267700 1.000000000000000
7.830963134765625 -24.944375991821289 2.623415470123291 0.000000000000000
7.849236965179443 -14.190757751464844 3.373122215270996 0.000000000000000
7.850057601928711 -17.394847869873047 1.170578956604004 1.000000000000000
7.860107898712158 -20.512653350830078 0.207040458917618 0.000000000000000
7.906315326690674 -17.982080459594727 0.147425189614296 0.000000000000000
7.916743278503418 -18.258657455444336 0.340425938367844 1.000000000000000
7.917273521423340 -19.331209182739258 2.372692584991455 1.000000000000000
7.924349308013916 -17.932140350341797 -1.171620726585388 1.000000000000000
7.925606727600098 -18.362455368041992 0.803277969360352 1.000000000000000
7.926878452301025 -20.980089187622070 0.125260934233665 0.000000000000000
7.934220790863037 -18.336658477783203 -1.271014809608459 1.000000000000000
7.937988281250000 -20.389324188232422 0.416298061609268 1.000000000000000
7.945403099060059 -16.990943908691406 0.645172834396362 1.000000000000000
7.946103572845459 -18.997632980346680 1.064791440963745 0.000000000000000
7.949717998504639 -25.355175018310547 2.525852918624878 0.000000000000000
7.953176975250244 -17.957511901855469 -0.795686125755310 0.000000000000000
7.954094409942627 -17.981615066528320 -0.834408164024353 1.000000000000000
7.955590248107910 -22.119304656982422 0.266684114933014 0.000000000000000
7.962098121643066 -18.162271499633789 -1.146913051605225 0.000000000000000
7.973099708557129 -24.382190704345703 2.118052005767822 0.000000000000000
7.979107856750488 -19.967382431030273 0.243949934840202 1.000000000000000
7.980833530426025 -20.423429489135742 0.164566263556480 0.000000000000000
7.982943534851074 -17.941783905029297 1.711159467697144 1.000000000000000
7.993247985839844 -17.918605804443359 -1.475281476974487 0.000000000000000
7.997614860534668 -18.191461563110352 0.072834528982639 0.000000000000000
8.006371498107910 -19.533203125000000 2.584548711776733 0.000000000000000
8.008596420288086 -20.120626449584961 -0.835720300674438 1.000000000000000
8.010510444641113 -17.986827850341797 0.488089323043823 1.000000000000000
8.012175559997559 -17.390926361083984 1.359097719192505 1.000000000000000
8.026297569274902 -19.695348739624023 -0.412079960107803 0.000000000000000
8.044216156005859 -19.674442291259766 0.935465753078461 0.000000000000000
8.046065330505371 -19.697603225708008 0.977372705936432 1.000000000000000
8.046177864074707 -15.738511085510254 2.164079427719116 0.000000000000000
8.050775527954102 -27.907194137573242 3.299017906188965 0.000000000000000
8.051385879516602 -18.887168884277344 0.114671736955643 1.000000000000000
8.053024291992188 -27.971805572509766 0.050803020596504 0.000000000000000
8.059769630432129 -20.490272521972656 2.500897645950317 0.000000000000000
8.059936523437500 -20.889980316162109 -0.218852430582047 0.000000000000000
8.075098991394043 -18.406064987182617 -0.814307272434235 1.000000000000000
8.079936981201172 -18.411846160888672 2.675670385360718 1.000000000000000
8.082405090332031 -18.078598022460938 -0.193558126688004 1.000000000000000
8.086222648620605 -25.108823776245117 2.809765815734863 0.000000000000000
8.086316108703613 -19.090911865234375 -1.398883819580078 0.000000000000000
8.099879264831543 -16.709236145019531 -1.073931813240051 0.000000000000000
8.105842590332031 -18.411464691162109 0.537318170070648 0.000000000000000
8.110742568969727 -16.794330596923828 -1.186449885368347 0.000000000000000
8.114026069641113 -16.777942657470703 1.143151164054871 0.000000000000000
8.116185188293457 -19.931846618652344 3.189450979232788 0.000000000000000
8.131814002990723 -20.695695877075195 0.038809124380350 1.000000000000000
8.145491600036621 -18.451725006103516 -1.244229793548584 1.000000000000000
8.153655052185059 -18.986366271972656 2.200954914093018 1.000000000000000
8.160284996032715 -20.108440399169922 -0.545524120330811 0.000000000000000
8.179671287536621 -19.550296783447266 1.790757060050964 1.000000000000000
8.196105003356934 -19.479677200317383 0.970765054225922 1.000000000000000
8.197023391723633 -17.826519012451172 -1.361697196960449 1.000000000000000
8.199234962463379 -20.093612670898438 0.287884324789047 1.000000000000000
8.202786445617676 -19.458490371704102 -0.368594825267792 0.000000000000000
8.220878601074219 -18.106863021850586 0.301975041627884 0.000000000000000
8.225450515747070 -20.387382507324219 0.587194442749023 1.000000000000000
8.226776123046875 -18.401525497436523 -1.437784433364868 1.000000000000000
8.231460571289062 -19.138977050781250 2.366372585296631 1.000000000000000
8.233701705932617 -20.494375228881836 1.142042994499207 0.000000000000000
8.241077423095703 -18.455987930297852 0.384567826986313 1.000000000000000
8.242372512817383 -17.869243621826172 0.828217506408691 1.000000000000000
8.244532585144043 -18.971084594726562 1.268780231475830 0.000000000000000
8.253385543823242 -19.304962158203125 2.570451974868774 1.000000000000000
8.257788658142090 -20.130559921264648 1.838582396507263 1.000000000000000
8.258173942565918 -19.186325073242188 1.080076456069946 1.000000000000000
8.261113166809082 -18.176939010620117 -0.271827340126038 1.000000000000000
8.262419700622559 -18.476060867309570 -0.158962965011597 1.000000000000000
8.269067764282227 -18.444267272949219 2.474691867828369 0.000000000000000
8.269853591918945 -25.129251480102539 3.920696735382080 0.000000000000000
8.271276473999023 -17.992969512939453 -0.193558126688004 1.000000000000000
8.278072357177734 -20.491006851196289 -0.046286094933748 0.000000000000000
8.278999328613281 -19.595315933227539 2.830796957015991 1.000000000000000
8.301378250122070 -18.354753494262695 -1.048689126968384 1.000000000000000
8.313088417053223 -23.719869613647461 3.344719886779785 0.000000000000000
8.313493728637695 -18.481964111328125 0.307744890451431 1.000000000000000
8.323977470397949 -18.165224075317383 -0.310407608747482 0.000000000000000
8.328575134277344 -19.743410110473633 -1.239294290542603 0.000000000000000
8.344286918640137 -29.503793716430664 0.818953573703766 0.000000000000000
8.352342605590820 -18.920299530029297 -0.957244038581848 1.000000000000000
8.358063697814941 -19.797872543334961 0.780485093593597 0.000000000000000
8.358331680297852 -20.465124130249023 0.887875795364380 1.000000000000000
8.358544349670410 -20.510633468627930 0.932165205478668 0.000000000000000
8.378116607666016 -17.890239715576172 0.451749593019485 0.000000000000000
8.391593933105469 -18.581853866577148 -0.786823451519012 1.000000000000000
8.400406837463379 -18.901351928710938 3.535581350326538 0.000000000000000
8.400721549987793 -18.403047561645508 0.501471102237701 1.000000000000000
8.404702186584473 -18.684730529785156 -0.003575830720365 0.000000000000000
8.405946731567383 -19.174730300903320 -0.566520631313324 1.000000000000000
8.432325363159180 -19.521463394165039 1.927764177322388 0.000000000000000
8.432377815246582 -19.441371917724609 0.606733262538910 1.000000000000000
8.437970161437988 -28.870561599731445 2.425332546234131 0.000000000000000
8.439397811889648 -16.171939849853516 3.794253110885620 0.000000000000000
8.440444946289062 -18.110494613647461 1.187076449394226 0.000000000000000
8.454232215881348 -19.832176208496094 -0.210720732808113 1.000000000000000
8.455225944519043 -13.888920783996582 2.779400825500488 0.000000000000000
8.456171035766602 -18.686578750610352 2.511148929595947 1.000000000000000
8.458152770996094 -29.543773651123047 2.181239843368530 0.000000000000000
8.461192131042480 -5.398889541625977 -0.619159519672394 1.000000000000000
8.462033271789551 -19.168779373168945 -0.325505495071411 1.000000000000000
8.462320327758789 -18.200553894042969 -0.119108945131302 1.000000000000000
8.468647003173828 -18.507366180419922 -0.355261176824570 1.000000000000000
8.470415115356445 -20.048374176025391 -1.174903273582458 1.000000000000000
8.471100807189941 -19.009433746337891 2.088268995285034 1.000000000000000
8.474884033203125 -20.058950424194336 -0.840347766876221 1.000000000000000
8.481719017028809 -19.771217346191406 -0.664820671081543 1.000000000000000
8.491576194763184 -18.194490432739258 -0.929318249225616 1.000000000000000
8.496088981628418 -18.871168136596680 0.592537999153137 1.000000000000000
8.505012512207031 -20.145950317382812 0.122133329510689 1.000000000000000
8.505216598510742 -19.517786026000977 1.511178493499756 0.000000000000000
8.505647659301758 -29.322473526000977 2.167079687118530 0.000000000000000
8.511219978332520 -18.200920104980469 -0.543691039085388 1.000000000000000
8.516277313232422 -19.612306594848633 1.064435124397278 1.000000000000000
8.525851249694824 -18.805603027343750 -0.995407700538635 0.000000000000000
8.533347129821777 -19.267480850219727 1.414416432380676 0.000000000000000
8.535006523132324 -18.825796127319336 1.546944022178650 1.000000000000000
