# This PCD file was generated using the MATLAB® pcwrite function
# from Computer Vision Toolbox®.
# .PCD v.7 - Point Cloud Data file format
VERSION .7
FIELDS x y z intensity
SIZE 8 8 8 8
TYPE F F F F
COUNT 1 1 1 1
WIDTH 639
HEIGHT 1
VIEWPOINT 0 0 0 1 0 0 0
POINTS 639
DATA ascii
-0.637152731418610 -3.785556554794312 -0.199839442968369 1.000000000000000
-0.631987035274506 -12.441230773925781 -0.816492736339569 0.000000000000000
-0.631939232349396 -15.638618469238281 0.628624439239502 0.000000000000000
-0.630929112434387 -12.767849922180176 -0.567078411579132 0.000000000000000
-0.625742256641388 -26.710809707641602 1.175883412361145 0.000000000000000
-0.621971189975739 -26.549835205078125 0.760362684726715 0.000000000000000
-0.618028402328491 -8.666490554809570 -0.519235610961914 0.000000000000000
-0.615189015865326 -5.082907676696777 -0.000893608608749 1.000000000000000
-0.611765205860138 -13.834449768066406 -0.029003160074353 0.000000000000000
-0.610666990280151 -33.066806793212891 1.137577772140503 0.000000000000000
-0.605385124683380 -4.690691471099854 -0.246212169528008 0.000000000000000
-0.602970600128174 -18.913444519042969 0.432728588581085 0.000000000000000
-0.599030792713165 -25.723983764648438 3.813384771347046 0.000000000000000
-0.590107679367065 -15.544813156127930 0.864269018173218 0.000000000000000
-0.588297843933105 -0.905587792396545 -0.014702199958265 0.000000000000000
-0.585181415081024 -9.100935935974121 -0.545006453990936 0.000000000000000
-0.576006412506104 -20.105949401855469 1.233760833740234 0.000000000000000
-0.575952768325806 -25.166997909545898 2.525970935821533 0.000000000000000
-0.569325447082520 -14.243193626403809 -0.851870894432068 0.000000000000000
-0.569001436233521 -26.587694168090820 1.426302790641785 0.000000000000000
-0.568931639194489 -14.486744880676270 -0.420157879590988 0.000000000000000
-0.562968134880066 -12.522928237915039 -0.459658682346344 0.000000000000000
-0.561697542667389 -19.048933029174805 0.325990676879883 0.000000000000000
-0.560485363006592 -7.579832077026367 -0.337162584066391 0.000000000000000
-0.558492779731750 -21.172636032104492 -0.003696607425809 0.000000000000000
-0.556458234786987 -16.496215820312500 1.568958401679993 0.000000000000000
-0.545762956142426 -3.178148508071899 -0.217574238777161 0.000000000000000
-0.542504191398621 -18.994365692138672 0.726666152477264 0.000000000000000
-0.540729999542236 -20.086956024169922 0.266555637121201 0.000000000000000
-0.537585258483887 -22.947685241699219 0.304490983486176 0.000000000000000
-0.526384532451630 -23.393743515014648 0.759893178939819 0.000000000000000
-0.525593757629395 -15.374187469482422 1.121571540832520 0.000000000000000
-0.524257361888885 -25.935739517211914 1.091787099838257 0.000000000000000
-0.522078752517700 -26.374874114990234 2.298676013946533 0.000000000000000
-0.510951280593872 -3.293321847915649 -0.147841006517410 0.000000000000000
-0.508376359939575 -8.484424591064453 -0.377047747373581 0.000000000000000
-0.508046150207520 -21.274345397949219 0.568397343158722 0.000000000000000
-0.505932569503784 -18.022571563720703 0.897570192813873 0.000000000000000
-0.497839212417603 -8.816164970397949 -0.493685424327850 1.000000000000000
-0.492349833250046 5.744185924530029 -0.178158611059189 1.000000000000000
-0.489928424358368 -20.913377761840820 1.242824435234070 0.000000000000000
-0.488768011331558 -21.083850860595703 -1.057278275489807 0.000000000000000
-0.484989225864410 -24.329473495483398 2.313125371932983 0.000000000000000
-0.484395235776901 -24.977851867675781 2.506801605224609 0.000000000000000
-0.481512904167175 -21.349821090698242 0.611426830291748 0.000000000000000
-0.481036096811295 -23.002817153930664 0.084328539669514 0.000000000000000
-0.472659498453140 -14.012000083923340 -0.029363395646214 0.000000000000000
-0.472165584564209 -12.683186531066895 -0.026582041755319 0.000000000000000
-0.471566796302795 -27.455467224121094 -0.162949964404106 0.000000000000000
-0.470392644405365 -23.597236633300781 0.313086152076721 0.000000000000000
-0.468367904424667 -12.017009735107422 -0.487224191427231 0.000000000000000
-0.464789688587189 -15.353198051452637 2.276420116424561 0.000000000000000
-0.463731676340103 -14.295245170593262 -0.387021481990814 0.000000000000000
-0.463215500116348 -18.199340820312500 0.626197159290314 0.000000000000000
-0.451258420944214 -17.926366806030273 0.927225768566132 0.000000000000000
-0.434921294450760 -24.285200119018555 1.302695512771606 0.000000000000000
-0.430956482887268 -11.814769744873047 -0.888947844505310 0.000000000000000
-0.429142951965332 -21.230297088623047 0.240909621119499 0.000000000000000
-0.426590234041214 -21.399890899658203 1.601872086524963 0.000000000000000
-0.421787500381470 -19.207265853881836 -1.111115336418152 0.000000000000000
-0.416915446519852 -9.274064064025879 -0.483274579048157 0.000000000000000
-0.415712475776672 -24.203529357910156 1.718200922012329 0.000000000000000
-0.411527037620544 -26.520767211914062 0.046293091028929 0.000000000000000
-0.390806466341019 -16.293556213378906 1.420179009437561 0.000000000000000
-0.386167824268341 -11.708733558654785 -0.700109064579010 0.000000000000000
-0.384146273136139 -13.425296783447266 -0.595795691013336 0.000000000000000
-0.384015977382660 -4.844793796539307 -0.010178752243519 0.000000000000000
-0.379405856132507 -25.334251403808594 2.877837896347046 0.000000000000000
-0.375663131475449 -13.049112319946289 -0.378327488899231 0.000000000000000
-0.367717832326889 -2.411776065826416 -0.145796388387680 0.000000000000000
-0.364244014024734 -13.808603286743164 -0.426864087581635 0.000000000000000
-0.363191008567810 -15.142209053039551 2.244754076004028 0.000000000000000
-0.358927965164185 -26.775871276855469 0.303802967071533 0.000000000000000
-0.356692135334015 -15.586121559143066 0.236745521426201 0.000000000000000
-0.354567766189575 -8.552503585815430 -0.050795763731003 0.000000000000000
-0.350622981786728 -11.423725128173828 -0.397115916013718 0.000000000000000
-0.349038213491440 -20.280426025390625 0.152228295803070 0.000000000000000
-0.342403441667557 -20.264879226684570 -0.704224467277527 0.000000000000000
-0.341573774814606 -24.961225509643555 -0.148138478398323 0.000000000000000
-0.339955031871796 -20.675384521484375 0.274301856756210 0.000000000000000
-0.339152753353119 -26.187501907348633 0.347413659095764 0.000000000000000
-0.337898135185242 -5.425128936767578 -0.366752624511719 0.000000000000000
-0.332698583602905 -9.025870323181152 -0.001576381386258 0.000000000000000
-0.329767018556595 -24.098423004150391 2.100059270858765 0.000000000000000
-0.329411536455154 -19.495962142944336 0.221215754747391 0.000000000000000
-0.326791226863861 -15.109602928161621 -0.670425295829773 0.000000000000000
-0.324966937303543 -14.442279815673828 -0.418651521205902 0.000000000000000
-0.322814077138901 -14.806264877319336 -0.429196029901505 0.000000000000000
-0.322625815868378 -7.356929779052734 -0.001285260543227 0.000000000000000
-0.316007614135742 -18.702663421630859 0.499617278575897 0.000000000000000
-0.313031375408173 -3.650604009628296 -0.000639488687739 0.000000000000000
-0.312893450260162 -23.341718673706055 -0.093708582222462 0.000000000000000
-0.311044007539749 -4.525312900543213 -0.009500169195235 0.000000000000000
-0.307596117258072 -4.845910072326660 -0.346354633569717 0.000000000000000
-0.307401180267334 -18.193298339843750 0.765815317630768 0.000000000000000
-0.305302351713181 -35.771179199218750 2.263150453567505 0.000000000000000
-0.300529986619949 -6.685131072998047 -0.039710894227028 0.000000000000000
-0.298287391662598 -2.268472909927368 -0.000399331329390 0.000000000000000
-0.298231363296509 -23.027778625488281 1.013553142547607 0.000000000000000
-0.298174291849136 -2.207957506179810 -0.000388859363738 1.000000000000000
-0.298053026199341 -15.369111061096191 -0.002682920079678 0.000000000000000
-0.293594121932983 -12.532533645629883 -0.026255315169692 0.000000000000000
-0.293128043413162 -24.374671936035156 0.416980743408203 0.000000000000000
-0.290028631687164 -26.544404983520508 3.532560110092163 0.000000000000000
-0.283119440078735 -24.651857376098633 2.800192594528198 0.000000000000000
-0.271080702543259 -12.047451972961426 -0.720153033733368 0.000000000000000
-0.267623037099838 -13.425303459167480 -0.028123514726758 0.000000000000000
-0.262739598751068 -29.458889007568359 2.956084966659546 0.000000000000000
-0.258602321147919 -13.604280471801758 -0.185247719287872 0.000000000000000
-0.255116343498230 -17.035007476806641 0.324150949716568 0.000000000000000
-0.253027349710464 -8.580954551696777 -0.513031482696533 0.000000000000000
-0.245093181729317 -25.908561706542969 0.343699693679810 0.000000000000000
-0.238796681165695 -4.328117370605469 -0.284111231565475 0.000000000000000
-0.235762402415276 -12.402742385864258 -0.932735383510590 0.000000000000000
-0.229070037603378 -20.965267181396484 0.479458123445511 0.000000000000000
-0.226483389735222 -22.845407485961914 0.259196817874908 0.000000000000000
-0.226122409105301 -23.903179168701172 2.272245645523071 0.000000000000000
-0.224702700972557 -14.480915069580078 -0.197172850370407 0.000000000000000
-0.223945006728172 -11.475402832031250 -0.575404524803162 0.000000000000000
-0.222993940114975 -25.968402862548828 0.743534445762634 0.000000000000000
-0.220583319664001 -8.485988616943359 -0.507304608821869 0.000000000000000
-0.211783662438393 -10.920629501342773 -0.169680386781693 0.000000000000000
-0.208335220813751 -17.323837280273438 -1.035369157791138 0.000000000000000
-0.208196878433228 -21.000844955444336 1.903928995132446 0.000000000000000
-0.207081824541092 -16.686927795410156 0.509871065616608 0.000000000000000
-0.206515237689018 -3.378431797027588 -0.221847444772720 0.000000000000000
-0.206205934286118 -24.160409927368164 1.901534914970398 0.000000000000000
-0.205566436052322 -16.564815521240234 0.251564890146255 0.000000000000000
-0.201721280813217 -8.964959144592285 -0.812925696372986 0.000000000000000
-0.199654400348663 -17.901281356811523 -0.794157922267914 0.000000000000000
-0.198347985744476 -5.944692134857178 -0.001038121874444 1.000000000000000
-0.193535670638084 -17.032779693603516 1.307695031166077 0.000000000000000
-0.192357450723648 -25.871213912963867 3.442861080169678 0.000000000000000
-0.191943660378456 -6.985240459442139 -0.041467383503914 0.000000000000000
-0.190847545862198 -17.031702041625977 0.618609905242920 0.000000000000000
-0.189235478639603 -24.530099868774414 -0.239768132567406 0.000000000000000
-0.184714972972870 -6.722172737121582 -0.453728467226028 0.000000000000000
-0.177356883883476 -5.937351703643799 -0.001036725589074 0.000000000000000
-0.170734286308289 -26.581974029541016 0.710016131401062 0.000000000000000
-0.168742820620537 -16.442010879516602 -0.192286923527718 0.000000000000000
-0.168661400675774 -19.761451721191406 -0.269050270318985 0.000000000000000
-0.168299764394760 -7.354074954986572 -0.001283864257857 0.000000000000000
-0.167930051684380 -14.824825286865234 -0.429659515619278 0.000000000000000
-0.167628347873688 -19.640413284301758 0.335979074239731 0.000000000000000
-0.164143010973930 -24.491020202636719 -0.145337596535683 0.000000000000000
-0.163258492946625 -30.076519012451172 3.017986059188843 0.000000000000000
-0.154000774025917 -20.615661621093750 1.344032406806946 0.000000000000000
-0.151539400219917 -15.285798072814941 0.408301979303360 0.000000000000000
-0.151393041014671 -22.588657379150391 1.255020618438721 0.000000000000000
-0.150779038667679 -12.537829399108887 -0.363379776477814 0.000000000000000
-0.149686902761459 -15.823256492614746 -0.033141680061817 0.000000000000000
-0.147190764546394 -14.847150802612305 -0.059603534638882 0.000000000000000
-0.146021917462349 -17.876831054687500 0.614921748638153 0.000000000000000
-0.140743598341942 -20.890937805175781 0.156791239976883 0.000000000000000
-0.136975035071373 -7.205839633941650 -0.430707812309265 0.000000000000000
-0.135251671075821 -18.190742492675781 0.415993720293045 0.000000000000000
-0.130836918950081 -20.370269775390625 0.231108084321022 0.000000000000000
-0.128095597028732 -21.459602355957031 1.606051445007324 0.000000000000000
-0.127504453063011 -19.851430892944336 -0.079690828919411 0.000000000000000
-0.127353981137276 -19.828004837036133 3.389332532882690 0.000000000000000
-0.126559346914291 -21.202238082885742 1.259667515754700 0.000000000000000
-0.123415745794773 -12.318700790405273 -0.641316175460815 0.000000000000000
-0.121666416525841 -16.363588333129883 0.625782787799835 0.000000000000000
-0.117624439299107 -23.319589614868164 1.835315227508545 0.000000000000000
-0.114958137273788 -16.143484115600586 0.059170722961426 0.000000000000000
-0.112221010029316 -23.991645812988281 -1.387566208839417 0.000000000000000
-0.111993357539177 -8.184151649475098 -0.426088452339172 0.000000000000000
-0.111697047948837 -14.478996276855469 -0.363984346389771 0.000000000000000
-0.109280250966549 -7.985885620117188 -0.292856514453888 0.000000000000000
-0.105621926486492 -12.930835723876953 -0.349909842014313 0.000000000000000
-0.103213220834732 -22.065877914428711 2.506314516067505 0.000000000000000
-0.100889906287193 -20.001892089843750 -0.272317439317703 0.000000000000000
-0.100214734673500 -8.333222389221191 -0.755504429340363 0.000000000000000
-0.100108712911606 -25.380069732666016 3.377433776855469 0.000000000000000
-0.097499705851078 -10.931861877441406 -0.505993008613586 0.000000000000000
-0.097067631781101 -20.752017974853516 0.394840180873871 0.000000000000000
-0.093497104942799 -11.930624961853027 -0.345766991376877 0.000000000000000
-0.083711393177509 -12.050886154174805 -0.140929341316223 0.000000000000000
-0.081699945032597 -25.440637588500977 1.413451552391052 0.000000000000000
-0.079864054918289 -6.640988826751709 -0.294618397951126 0.000000000000000
-0.077765397727489 -24.215452194213867 -0.143699795007706 0.000000000000000
-0.074623845517635 -11.371405601501465 -0.089314565062523 0.000000000000000
-0.072006553411484 -17.048109054565430 0.357110142707825 0.000000000000000
-0.070952810347080 -22.094074249267578 0.887394249439240 0.000000000000000
-0.061096984893084 -15.489618301391602 0.830760300159454 0.000000000000000
-0.058883342891932 -20.082622528076172 0.227840900421143 0.000000000000000
-0.057422541081905 -13.595230102539062 -0.132883071899414 0.000000000000000
-0.056452095508575 -11.191889762878418 -0.668849885463715 0.000000000000000
-0.056445032358170 -8.421902656555176 -0.179358825087547 0.000000000000000
-0.054020732641220 -21.797677993774414 2.072009325027466 0.000000000000000
-0.054017122834921 -23.096420288085938 2.012557029724121 0.000000000000000
-0.053139545023441 -16.547182083129883 2.452341318130493 0.000000000000000
-0.049574859440327 -20.003740310668945 0.572733283042908 0.000000000000000
-0.041925970464945 -16.917371749877930 -0.295294702053070 0.000000000000000
-0.040511224418879 -16.346511840820312 0.216841742396355 0.000000000000000
-0.037519998848438 -12.796487808227539 -0.838729798793793 0.000000000000000
-0.035325698554516 -22.742506027221680 1.438809037208557 0.000000000000000
-0.027772344648838 -14.335972785949707 -0.002502104034647 0.000000000000000
-0.025635862722993 -21.601097106933594 2.453497886657715 0.000000000000000
-0.023986065760255 -20.210956573486328 1.006161689758301 0.000000000000000
-0.021363880485296 -24.001367568969727 1.842591404914856 0.000000000000000
-0.021275216713548 -17.926761627197266 -0.209639996290207 0.000000000000000
-0.019286179915071 -26.310646057128906 0.955571591854095 0.000000000000000
-0.018281182274222 -24.939603805541992 0.139290511608124 0.000000000000000
-0.018105432391167 -11.656186103820801 -1.056694984436035 0.000000000000000
-0.017651822417974 -12.334108352661133 -0.215292885899544 0.000000000000000
-0.017028668895364 -10.962970733642578 -0.149254560470581 0.000000000000000
-0.016282754018903 -22.213304519653320 -1.241916894912720 0.000000000000000
-0.012153703719378 -16.580358505249023 0.347309112548828 0.000000000000000
-0.011450806632638 -16.001922607421875 0.981523156166077 0.000000000000000
-0.011219440959394 -3.493634223937988 -0.128106400370598 0.000000000000000
-0.010156566277146 -16.164766311645508 0.866964161396027 0.000000000000000
-0.008779630996287 -17.969850540161133 1.171507000923157 0.000000000000000
-0.008361388929188 -12.283917427062988 -0.544919967651367 0.000000000000000
-0.006903712172061 -10.987659454345703 -0.086298674345016 0.000000000000000
-0.005799361038953 -7.911620140075684 -0.077329427003860 0.000000000000000
-0.002151153516024 -15.403896331787109 0.056458484381437 0.000000000000000
0.005063059739769 -18.127679824829102 -0.107573084533215 0.000000000000000
0.005378260742873 -19.256217956542969 -1.299252152442932 0.000000000000000
0.006979953497648 -24.990888595581055 0.235540553927422 0.000000000000000
0.007225744426250 -25.870912551879883 1.836297035217285 0.000000000000000
0.009257520548999 -16.574932098388672 0.188044741749763 0.000000000000000
0.010600447654724 -5.471482276916504 -0.074491143226624 0.000000000000000
0.011220123618841 -20.088834762573242 0.536570549011230 0.000000000000000
0.016357894986868 -29.287647247314453 1.683586716651917 0.000000000000000
0.021277910098433 -13.698330879211426 -0.212799444794655 0.000000000000000
0.026876062154770 -7.195728778839111 -0.056516677141190 0.000000000000000
0.026944739744067 -26.617549896240234 1.992041110992432 0.000000000000000
0.033331662416458 -22.205154418945312 0.550438702106476 0.000000000000000
0.035555787384510 -12.893374443054199 -0.522361338138580 0.000000000000000
0.035639699548483 -20.835800170898438 0.916999101638794 0.000000000000000
0.039534062147141 -7.283332824707031 -0.547644615173340 0.000000000000000
0.039575699716806 -17.177665710449219 -0.464815258979797 0.000000000000000
0.040561817586422 -26.112958908081055 0.396539628505707 0.000000000000000
0.041559666395187 -15.980921745300293 1.226863384246826 0.000000000000000
0.043042745441198 -7.929735183715820 -0.473897904157639 0.000000000000000
0.044539738446474 -16.151168823242188 -0.157864615321159 0.000000000000000
0.045512564480305 -23.491573333740234 0.762879312038422 0.000000000000000
0.047761790454388 -7.517822742462158 -0.174545198678970 0.000000000000000
0.053262285888195 -17.742258071899414 1.156674504280090 0.000000000000000
0.056375000625849 -7.955660820007324 -0.047211576253176 0.000000000000000
0.056474927812815 -15.707201957702637 0.148042231798172 0.000000000000000
0.059733882546425 -25.927240371704102 0.493302941322327 0.000000000000000
0.066571965813637 -18.882593154907227 -0.220818921923637 0.000000000000000
0.067310057580471 -34.742477416992188 2.197990894317627 0.000000000000000
0.067805267870426 -6.924857139587402 -0.307204395532608 0.000000000000000
0.072525285184383 -25.337377548217773 0.968939125537872 0.000000000000000
0.074349157512188 -25.974565505981445 1.393097996711731 0.000000000000000
0.077556535601616 -17.917724609375000 1.340963363647461 0.000000000000000
0.082558996975422 -21.697832107543945 2.656490087509155 0.000000000000000
0.085339829325676 -21.828052520751953 -1.178353190422058 0.000000000000000
0.085988856852055 -8.129701614379883 -0.173141717910767 0.000000000000000
0.091768592596054 -7.394745349884033 -0.100682847201824 0.000000000000000
0.092228733003139 -25.651300430297852 1.820720911026001 0.000000000000000
0.095986932516098 -1.568920850753784 -0.021399868652225 0.000000000000000
0.099652759730816 -18.358959197998047 1.444902777671814 0.000000000000000
0.102452300488949 -11.487114906311035 -0.863754928112030 0.000000000000000
0.102572359144688 -6.450586795806885 -0.087832033634186 0.000000000000000
0.103459447622299 7.967188835144043 -0.047282785177231 0.000000000000000
0.105847828090191 -10.752581596374512 -0.249655336141586 0.000000000000000
0.105951838195324 -10.763147354125977 -0.084539398550987 0.000000000000000
0.107739664614201 -26.608228683471680 1.119876623153687 0.000000000000000
0.112405784428120 -5.968091964721680 -0.184459641575813 0.000000000000000
0.115918233990669 -23.804845809936523 -0.369805037975311 0.000000000000000
0.118102967739105 -15.663429260253906 -0.062879160046577 0.000000000000000
0.119442991912365 -18.800619125366211 1.588677883148193 0.000000000000000
0.126743271946907 -17.886056900024414 0.443384110927582 0.000000000000000
0.127219423651695 -29.391239166259766 2.793843984603882 0.000000000000000
0.128227159380913 -23.623199462890625 0.767163693904877 0.000000000000000
0.131826147437096 -27.071680068969727 -0.004724955186248 0.000000000000000
0.133392319083214 -15.955318450927734 1.601046323776245 0.000000000000000
0.133536964654922 -21.371252059936523 0.119363151490688 0.000000000000000
0.137384161353111 -18.220600128173828 -0.913477241992950 0.000000000000000
0.138773575425148 -21.843299865722656 -0.842969954013824 0.000000000000000
0.141260907053947 -26.024396896362305 2.772059202194214 0.000000000000000
0.141441822052002 -22.263290405273438 2.962707281112671 0.000000000000000
0.141507565975189 -6.183346271514893 -0.369621276855469 1.000000000000000
0.143569052219391 -20.260517120361328 1.438111662864685 0.000000000000000
0.146255657076836 -20.639650344848633 1.146737456321716 0.000000000000000
0.147455573081970 -18.858169555664062 1.120416045188904 0.000000000000000
0.150815710425377 -15.320656776428223 1.294652938842773 0.000000000000000
0.150838255882263 -16.912225723266602 -0.490145534276962 0.000000000000000
0.151412248611450 -20.081079483032227 1.820505738258362 0.000000000000000
0.154342845082283 -21.780918121337891 1.897970199584961 0.000000000000000
0.155727326869965 -17.460395812988281 1.104678034782410 0.000000000000000
0.157086908817291 -17.612834930419922 1.386215448379517 0.000000000000000
0.162048086524010 -19.382892608642578 1.188945770263672 0.000000000000000
0.168789908289909 -17.330907821655273 0.096799649298191 0.000000000000000
0.169917359948158 -22.535322189331055 0.601933062076569 0.000000000000000
0.172023043036461 -14.514980316162109 -0.002533520106226 0.000000000000000
0.174179539084435 -18.111558914184570 -0.524907648563385 0.000000000000000
0.178561910986900 -19.230348587036133 1.253736257553101 0.000000000000000
0.180686146020889 -3.163451910018921 -0.146656602621078 0.000000000000000
0.188533261418343 -26.605882644653320 1.068629503250122 0.000000000000000
0.192526623606682 -18.202173233032227 0.171566113829613 0.000000000000000
0.193007260560989 -25.597623825073242 0.290416568517685 0.000000000000000
0.193161353468895 -19.015468597412109 0.946694970130920 0.000000000000000
0.194451153278351 -18.818870544433594 0.068978756666183 0.000000000000000
0.196571424603462 -7.452108383178711 -0.445502221584320 0.000000000000000
0.199502825737000 -25.514518737792969 1.122945785522461 0.000000000000000
0.204250380396843 -19.310579299926758 -0.114599034190178 0.000000000000000
0.204369217157364 -8.326556205749512 -0.561977028846741 0.000000000000000
0.205186918377876 -18.900146484375000 0.504850506782532 0.000000000000000
0.209717050194740 -15.726552009582520 1.329006433486938 0.000000000000000
0.210927665233612 -13.747818946838379 -0.424887269735336 0.000000000000000
0.213684648275375 -18.605962753295898 1.105470895767212 0.000000000000000
0.218008413910866 -24.443452835083008 0.418143779039383 0.000000000000000
0.218111321330070 -24.454988479614258 0.042683750391006 0.000000000000000
0.218532487750053 -13.433303833007812 -0.363542675971985 0.000000000000000
0.218685045838356 -22.454010009765625 0.470366775989532 0.000000000000000
0.221425756812096 -15.432931900024414 0.887246131896973 0.000000000000000
0.221537798643112 -15.440740585327148 0.649925351142883 0.000000000000000
0.223204821348190 -15.709930419921875 -0.123400501906872 0.000000000000000
0.224008500576019 -15.689243316650391 1.921033620834351 0.000000000000000
0.224130660295486 -21.190134048461914 1.177358508110046 0.000000000000000
0.226750925183296 -15.319475173950195 1.146625161170959 0.000000000000000
0.226964026689529 -21.458009719848633 -1.447891950607300 0.000000000000000
0.228016197681427 -15.404957771301270 0.204373463988304 0.000000000000000
0.228178694844246 -17.407196044921875 -0.504513859748840 0.000000000000000
0.228499233722687 -11.372928619384766 -0.329660534858704 0.000000000000000
0.230875968933105 -21.827859878540039 1.549411058425903 0.000000000000000
0.233855500817299 -15.242205619812012 -0.002660579979420 0.000000000000000
0.235670372843742 -8.405577659606934 -0.567362546920776 0.000000000000000
0.239003568887711 -20.256368637084961 0.502165019512177 0.000000000000000
0.241773605346680 -18.274116516113281 0.102071918547153 0.000000000000000
0.248349517583847 -18.623577117919922 0.998926043510437 0.000000000000000
0.249008059501648 -20.150205612182617 0.576969027519226 0.000000000000000
0.253807723522186 -4.833255767822266 -0.028720969334245 0.000000000000000
0.257927060127258 -18.333864212036133 -0.672338783740997 0.000000000000000
0.259847730398178 -23.935056686401367 1.745183944702148 0.000000000000000
0.260537326335907 -12.822680473327637 -0.692349851131439 0.000000000000000
0.266628205776215 -21.885189056396484 0.963253557682037 0.000000000000000
0.267361521720886 -16.434848785400391 0.312737166881561 0.000000000000000
0.268490314483643 -13.248249053955078 -0.587818682193756 0.000000000000000
0.269247055053711 -7.687150955200195 -0.045644979923964 0.000000000000000
0.272761762142181 -7.550162792205811 -0.117365881800652 0.000000000000000
0.276303738355637 -16.984531402587891 1.929392814636230 0.000000000000000
0.277845293283463 -25.592845916748047 0.290371209383011 0.000000000000000
0.287600606679916 -15.312596321105957 0.379647046327591 0.000000000000000
0.290860235691071 -22.248283386230469 1.364777565002441 0.000000000000000
0.292132645845413 -5.311665058135986 -0.297416985034943 0.000000000000000
0.295565307140350 -6.340349197387695 -0.098602257668972 0.000000000000000
0.296801835298538 -20.686492919921875 0.552590787410736 0.000000000000000
0.299736112356186 -23.237686157226562 1.784111022949219 0.000000000000000
0.311243236064911 -13.940526008605957 -0.002433686982840 0.000000000000000
0.311285734176636 -8.299351692199707 -0.336474537849426 0.000000000000000
0.311948955059052 -16.827972412109375 -0.843779802322388 0.000000000000000
0.312061518430710 -25.146026611328125 0.043891519308090 0.000000000000000
0.312381386756897 -21.772357940673828 0.247035607695580 0.000000000000000
0.312850952148438 -15.832802772521973 0.058041844516993 0.000000000000000
0.314988821744919 -18.836948394775391 0.684231102466583 0.000000000000000
0.318156242370605 -7.284047126770020 -0.435718834400177 0.000000000000000
0.319858521223068 -25.774309158325195 2.028638601303101 0.000000000000000
0.320006698369980 -19.137027740478516 0.106897376477718 0.000000000000000
0.323620855808258 -15.146484375000000 -0.817839622497559 0.000000000000000
0.324698805809021 -7.918844699859619 -0.321091920137405 0.000000000000000
0.326015114784241 -15.159463882446289 0.871636092662811 0.000000000000000
0.331177383661270 -7.104285240173340 -0.001241278252564 0.000000000000000
0.333651721477509 -22.541778564453125 1.339375257492065 0.000000000000000
0.335648685693741 -15.943874359130859 0.886014461517334 0.000000000000000
0.336440026760101 -19.994554519653320 0.764726698398590 0.000000000000000
0.339357852935791 -23.652561187744141 2.144448041915894 0.000000000000000
0.340192407369614 -4.636966705322266 -0.313705444335938 1.000000000000000
0.341397970914841 -17.277513504028320 1.962798237800598 0.000000000000000
0.348494082689285 -19.050552368164062 -0.625419378280640 0.000000000000000
0.348571568727493 -19.539632797241211 0.221714913845062 0.000000000000000
0.350527614355087 -18.074823379516602 -0.801957666873932 0.000000000000000
0.351178050041199 -15.345155715942383 1.634934544563293 0.000000000000000
0.354990839958191 -15.511759757995605 0.503869056701660 0.000000000000000
0.358808755874634 -10.549415588378906 -0.590144991874695 0.000000000000000
0.361429780721664 -20.582822799682617 1.793800711631775 0.000000000000000
0.361671030521393 -16.161268234252930 -1.059530854225159 0.000000000000000
0.362478762865067 -20.319219589233398 1.168226480484009 0.000000000000000
0.364033371210098 -31.793436050415039 2.770564317703247 0.000000000000000
0.364767134189606 -18.045509338378906 -0.731241106987000 0.000000000000000
0.366996705532074 -20.899850845336914 0.197012647986412 0.000000000000000
0.372616320848465 -24.286342620849609 0.368844419717789 0.000000000000000
0.373768866062164 -20.432207107543945 0.585096895694733 0.000000000000000
0.373836934566498 -12.138605117797852 -1.030463933944702 0.000000000000000
0.375278443098068 -19.580379486083984 0.560713112354279 0.000000000000000
0.375427126884460 -20.367351531982422 1.775050163269043 0.000000000000000
0.378401786088943 -5.210116386413574 -0.041028782725334 0.000000000000000
0.378696024417877 -7.371179580688477 -0.213902771472931 0.000000000000000
0.380444109439850 -15.500324249267578 1.100532174110413 0.000000000000000
0.381643712520599 -21.733972549438477 0.538841068744659 0.000000000000000
0.382049143314362 -20.116895675659180 0.885517954826355 0.000000000000000
0.383171766996384 -16.092306137084961 0.863322317600250 0.000000000000000
0.383432030677795 -15.446229934692383 1.126516103744507 0.000000000000000
0.388188242912292 -18.439590454101562 -0.109448254108429 0.000000000000000
0.393411904573441 -22.404151916503906 -0.132970973849297 0.000000000000000
0.395233154296875 -16.102869033813477 -0.095586240291595 0.000000000000000
0.395739197731018 -16.123487472534180 -0.343472987413406 0.000000000000000
0.397098988294601 -20.096439361572266 0.382437229156494 0.000000000000000
0.397275209426880 -17.359428405761719 0.030305881053209 0.000000000000000
0.401622384786606 -18.675146102905273 0.786167502403259 0.000000000000000
0.401864618062973 -15.564626693725586 1.562308073043823 0.000000000000000
0.403458237648010 -22.616376876831055 0.952012836933136 0.000000000000000
0.404894948005676 -16.310844421386719 -0.065496444702148 0.000000000000000
0.405879914760590 -25.525039672851562 0.436683833599091 0.000000000000000
0.415696144104004 -17.665529251098633 -0.444199591875076 0.000000000000000
0.423511892557144 -19.163866043090820 0.769888281822205 0.000000000000000
0.423583626747131 -10.541712760925293 -0.793274939060211 0.000000000000000
0.425872474908829 -21.959953308105469 1.728610992431641 0.000000000000000
0.429191738367081 -30.507627487182617 0.287564575672150 0.000000000000000
0.430259615182877 -17.529943466186523 0.165270462632179 0.000000000000000
0.432384312152863 -11.442686080932617 -0.971618950366974 0.000000000000000
0.433108329772949 -18.925199508666992 1.197618484497070 0.000000000000000
0.433785736560822 -15.319015502929688 1.389304757118225 0.000000000000000
0.435471177101135 -19.368352890014648 0.852629780769348 0.000000000000000
0.435694485902786 -13.078750610351562 -0.228417098522186 0.000000000000000
0.436076015233994 -16.531831741333008 0.282890141010284 0.000000000000000
0.437187045812607 -18.703838348388672 1.436290502548218 0.000000000000000
0.437949508428574 -7.823510646820068 -0.061543170362711 0.000000000000000
0.438871860504150 -20.847148895263672 -1.085496187210083 0.000000000000000
0.440551131963730 -13.428776741027832 -0.002345024375245 0.000000000000000
0.442413747310638 -14.365316390991211 -0.333678394556046 0.000000000000000
0.444749206304550 -20.029905319213867 -1.004404425621033 0.000000000000000
0.445256918668747 -7.959010601043701 -0.093220107257366 0.000000000000000
0.445708125829697 -19.670886993408203 0.563346087932587 0.000000000000000
0.446150392293930 -17.972785949707031 1.033475279808044 0.000000000000000
0.448088973760605 -21.284976959228516 -0.780657529830933 0.000000000000000
0.455825299024582 -17.280534744262695 1.360480785369873 0.000000000000000
0.456037133932114 -24.212915420532227 0.367751181125641 0.000000000000000
0.457319259643555 -19.434354782104492 0.407204419374466 0.000000000000000
0.459083914756775 -8.562521934509277 -0.396879017353058 0.000000000000000
0.460365444421768 -13.514483451843262 -0.391884714365005 0.000000000000000
0.461796283721924 -17.506896972656250 1.107961177825928 0.000000000000000
0.462092429399490 -21.950162887573242 0.206927359104156 0.000000000000000
0.468599796295166 -13.891589164733887 -0.589851975440979 0.000000000000000
0.469017237424850 -2.243493795394897 -0.004800349473953 0.000000000000000
0.469524890184402 -15.245623588562012 0.583289444446564 0.000000000000000
0.469617456197739 -16.322555541992188 0.467528045177460 0.000000000000000
0.470188111066818 -2.210543155670166 -0.004733329173177 0.000000000000000
0.471090167760849 -20.260223388671875 2.301818847656250 0.000000000000000
0.474857628345490 -15.559986114501953 -0.630687355995178 0.000000000000000
0.475375831127167 -18.021703720092773 0.031464781612158 0.000000000000000
0.477496683597565 -17.488338470458984 0.938300669193268 0.000000000000000
0.480124890804291 -26.246196746826172 1.155306339263916 0.000000000000000
0.482266694307327 -2.513587236404419 -0.152954965829849 1.000000000000000
0.483304888010025 -20.179365158081055 1.315928578376770 0.000000000000000
0.483905702829361 -10.806256294250488 -0.251140832901001 0.000000000000000
0.484771758317947 -19.177831649780273 -0.040178842842579 0.000000000000000
0.488712698221207 -15.868659019470215 -0.612676441669464 0.000000000000000
0.488928407430649 -21.364326477050781 1.681849360466003 0.000000000000000
0.488973855972290 -17.267967224121094 0.195985823869705 0.000000000000000
0.489812254905701 -17.024469375610352 0.749568521976471 0.000000000000000
0.489994406700134 -15.540003776550293 -0.092263147234917 0.000000000000000
0.491908967494965 -16.811639785766602 0.416917890310287 0.000000000000000
0.493386328220367 -13.448963165283203 -1.011912941932678 0.000000000000000
0.494773089885712 -19.573490142822266 1.861174702644348 0.000000000000000
0.495099574327469 -9.770009994506836 -0.584617257118225 0.000000000000000
0.496454715728760 -17.255342483520508 0.228991642594337 0.000000000000000
0.500868678092957 -17.408758163452148 -0.036475956439972 0.000000000000000
0.501515805721283 -15.905401229858398 -0.583514392375946 0.000000000000000
0.503011941909790 -2.578399181365967 -0.162055283784866 0.000000000000000
0.504975497722626 -17.833059310913086 0.750845432281494 0.000000000000000
0.505326569080353 -15.885447502136230 2.716722965240479 0.000000000000000
0.508868455886841 -16.828569412231445 1.097604751586914 0.000000000000000
0.509646236896515 -7.125631809234619 -0.537147641181946 0.000000000000000
0.511610329151154 -13.945721626281738 -0.833974421024323 0.000000000000000
0.516128182411194 -15.051095008850098 -0.349647462368011 0.000000000000000
0.518518090248108 -18.493814468383789 0.743080317974091 0.000000000000000
0.520074486732483 -17.410373687744141 1.370837330818176 0.000000000000000
0.520293116569519 -15.110950469970703 0.985710442066193 0.000000000000000
0.520798146724701 -11.735517501831055 -0.340436816215515 0.000000000000000
0.520948171615601 -16.376527786254883 1.485368013381958 0.000000000000000
0.521569311618805 -13.163567543029785 -0.609743773937225 0.000000000000000
0.529191553592682 -14.424958229064941 -0.196519404649734 0.000000000000000
0.529375374317169 -26.053892135620117 0.195576280355453 0.000000000000000
0.531076788902283 -15.102200508117676 -0.118688158690929 0.000000000000000
0.532022655010223 -15.642115592956543 -0.634087741374969 0.000000000000000
0.533528149127960 -24.808668136596680 0.281522601842880 0.000000000000000
0.538130521774292 -21.678125381469727 0.912653982639313 0.000000000000000
0.539162337779999 -7.434360027313232 -0.301985085010529 0.000000000000000
0.540558338165283 -19.089656829833984 1.392365813255310 0.000000000000000
0.543991208076477 -18.211025238037109 0.871941328048706 0.000000000000000
0.544212222099304 -18.915256500244141 1.416191220283508 0.000000000000000
0.546353697776794 -24.471080780029297 0.371698975563049 0.000000000000000
0.548887431621552 -16.006404876708984 0.366246402263641 0.000000000000000
0.549068868160248 -7.676820755004883 -0.341417014598846 0.000000000000000
0.550428092479706 -13.333047866821289 -0.309817701578140 0.000000000000000
0.550821483135223 -19.645969390869141 1.091930031776428 0.000000000000000
0.556638300418854 -17.252130508422852 -1.098075628280640 0.000000000000000
0.558365881443024 -31.299926757812500 2.282409667968750 0.000000000000000
0.558588325977325 -29.657783508300781 2.976452589035034 0.000000000000000
0.559482276439667 -25.118053436279297 0.622799575328827 0.000000000000000
0.559648454189301 -26.023244857788086 2.359687328338623 0.000000000000000
0.562208056449890 -15.721917152404785 -0.032948996871710 0.000000000000000
0.563371300697327 -25.860254287719727 1.536746859550476 0.000000000000000
0.564337253570557 -7.185013294219971 -0.430707812309265 0.000000000000000
0.573105216026306 -16.849992752075195 0.094163514673710 0.000000000000000
0.576243698596954 -19.658594131469727 1.206333041191101 0.000000000000000
0.581683635711670 -8.748414039611816 -0.068863011896610 0.000000000000000
0.594652831554413 -23.955080032348633 0.271857142448425 0.000000000000000
0.598485410213470 -15.246006011962891 0.436847954988480 0.000000000000000
0.598597228527069 -17.940555572509766 0.582935333251953 0.000000000000000
0.599100708961487 -19.732816696166992 1.515591263771057 0.000000000000000
0.600562453269958 -9.729915618896484 -0.263784855604172 0.000000000000000
0.602525651454926 -17.151044845581055 1.555790185928345 0.000000000000000
0.604774713516235 -9.773194313049316 -0.283774584531784 0.000000000000000
0.607502162456512 -27.708326339721680 2.414998769760132 0.000000000000000
0.608015358448029 -11.055162429809570 -0.789756894111633 0.000000000000000
0.609816491603851 -9.967542648315430 -0.442991226911545 0.000000000000000
0.613163173198700 -18.027744293212891 -1.286663413047791 0.000000000000000
0.617877483367920 -18.833997726440430 0.865594267845154 0.000000000000000
0.618138432502747 -17.285985946655273 -1.100361108779907 0.000000000000000
0.623413622379303 -16.746009826660156 1.351229071617126 0.000000000000000
0.626441597938538 -22.343086242675781 3.312595844268799 0.000000000000000
0.630068123340607 -15.210639953613281 0.992476105690002 0.000000000000000
0.631054282188416 -15.705028533935547 0.268865346908569 0.000000000000000
0.634895801544189 -16.927289962768555 -0.165566280484200 0.000000000000000
0.636231541633606 -17.791954040527344 -0.858269512653351 0.000000000000000
0.636541843414307 -20.232604980468750 -0.236722007393837 0.000000000000000
0.637472152709961 -16.088768005371094 -0.993265807628632 0.000000000000000
0.641227245330811 -12.451561927795410 -0.313422560691833 0.000000000000000
0.642390251159668 -17.781637191772461 0.817322134971619 0.000000000000000
0.643434405326843 -18.315521240234375 0.207920134067535 0.000000000000000
0.644319474697113 -17.051370620727539 0.390205591917038 0.000000000000000
0.648656725883484 -9.536911964416504 -0.571254551410675 0.000000000000000
0.650123417377472 -10.467507362365723 -0.082371719181538 0.000000000000000
0.655256450176239 -9.211170196533203 -0.569656312465668 0.000000000000000
0.670433998107910 -20.779048919677734 1.555899739265442 0.000000000000000
0.671957373619080 -15.195582389831543 -0.411582231521606 0.000000000000000
0.672603666782379 -30.874313354492188 2.311161756515503 0.000000000000000
0.680008709430695 -18.822933197021484 0.575467824935913 0.000000000000000
0.682662606239319 -20.600246429443359 0.590133965015411 0.000000000000000
0.685139656066895 -15.053178787231445 0.837198257446289 0.000000000000000
0.688763856887817 -16.913145065307617 1.922621488571167 0.000000000000000
0.689882874488831 -8.941352844238281 -0.035999763756990 0.000000000000000
0.692817032337189 -17.985378265380859 1.277534842491150 0.000000000000000
0.697836339473724 -21.535051345825195 1.877483487129211 0.000000000000000
0.698073625564575 -18.121839523315430 1.580252885818481 0.000000000000000
0.702315330505371 -29.823665618896484 1.829825520515442 0.000000000000000
0.702870547771454 -20.836519241333008 -0.564140319824219 0.000000000000000
0.704036712646484 -17.170244216918945 0.624126732349396 0.000000000000000
0.706731140613556 -15.539500236511230 0.116745382547379 0.000000000000000
0.709499120712280 -20.236375808715820 2.479066848754883 0.000000000000000
0.711408913135529 -10.859795570373535 -0.440914392471313 0.000000000000000
0.711599946022034 -18.143726348876953 2.691007614135742 0.000000000000000
0.715780794620514 -20.435934066772461 1.136086702346802 0.000000000000000
0.717085540294647 -14.000690460205078 -0.163942024111748 0.000000000000000
0.717289686203003 -17.028762817382812 0.979758441448212 0.000000000000000
0.720397353172302 -10.072254180908203 -0.603468179702759 0.000000000000000
0.723288416862488 -15.157395362854004 -0.877621769905090 0.000000000000000
0.732781827449799 -12.829539299011230 -0.199627622961998 0.000000000000000
0.733381450176239 -18.251642227172852 0.593191862106323 0.000000000000000
0.733813464641571 -11.624769210815430 -0.046757947653532 0.000000000000000
0.744688093662262 -25.405088424682617 -0.004435929004103 0.000000000000000
0.750986754894257 -19.495452880859375 1.083942055702209 0.000000000000000
0.755692839622498 -19.617622375488281 0.788509488105774 0.000000000000000
0.756975710391998 -16.045684814453125 0.521655738353729 0.000000000000000
0.757244408130646 -17.336778640747070 1.097859025001526 0.000000000000000
0.759021222591400 -14.415587425231934 -0.113378919661045 0.000000000000000
0.759315967559814 -11.426014900207520 -0.133913278579712 0.000000000000000
0.760303199291229 -17.561523437500000 0.266930848360062 0.000000000000000
0.760316371917725 -19.299839019775391 1.683033585548401 0.000000000000000
0.761145174503326 -10.026930809020996 -0.291422247886658 0.000000000000000
0.761662065982819 -18.703218460083008 -0.218901202082634 0.000000000000000
0.762125790119171 -15.786063194274902 0.604383289813995 0.000000000000000
0.762632906436920 -18.599304199218750 -1.040736198425293 0.000000000000000
0.763799428939819 -18.178188323974609 1.291411995887756 0.000000000000000
0.768313825130463 -24.366807937622070 0.229772686958313 0.000000000000000
0.769421398639679 -19.600482940673828 1.864581227302551 0.000000000000000
0.772570431232452 -4.673807621002197 -0.319629490375519 0.000000000000000
0.772821724414825 -19.687103271484375 0.261356085538864 0.000000000000000
0.773901879787445 -19.028232574462891 1.462009668350220 0.000000000000000
0.775640785694122 -20.080863952636719 -0.080670304596424 0.000000000000000
0.775905787944794 -20.087726593017578 0.228067770600319 0.000000000000000
0.780501782894135 -20.965679168701172 0.399177432060242 0.000000000000000
0.782609343528748 -24.282039642333984 3.600520133972168 0.000000000000000
0.784512519836426 -24.661937713623047 0.279934346675873 0.000000000000000
0.786581158638000 -10.675476074218750 -0.577856600284576 0.000000000000000
0.789396524429321 -15.593653678894043 -0.272536784410477 0.000000000000000
0.793564379215240 -20.028284072875977 -0.003498337930068 0.000000000000000
0.796287357807159 -25.855707168579102 3.442333459854126 0.000000000000000
0.800022423267365 -9.749611854553223 -0.433950603008270 0.000000000000000
0.800791740417480 -12.204653739929199 -0.472001492977142 0.000000000000000
0.810277640819550 -28.899906158447266 2.052098751068115 0.000000000000000
0.813176631927490 -9.909917831420898 -0.901404917240143 0.000000000000000
0.813483357429504 -16.409790039062500 1.561766743659973 0.000000000000000
0.815162897109985 -17.486551284790039 0.804106950759888 0.000000000000000
0.816945910453796 -17.949089050292969 -0.935356676578522 0.000000000000000
0.818393051624298 -25.955053329467773 1.442741274833679 0.000000000000000
0.819164752960205 -14.479530334472656 -0.922596812248230 0.000000000000000
0.820163011550903 -16.365484237670898 -0.254551619291306 0.000000000000000
0.822687387466431 -11.363053321838379 -0.505389332771301 0.000000000000000
0.823885023593903 -20.504001617431641 1.615002155303955 0.000000000000000
0.828293442726135 -19.390336990356445 2.876311302185059 0.000000000000000
0.830344378948212 -20.250669479370117 0.113197289407253 0.000000000000000
0.830827951431274 -17.822589874267578 0.270939409732819 0.000000000000000
0.834114670753479 -18.626886367797852 1.575542926788330 0.000000000000000
0.836076974868774 -10.996242523193359 -0.786626338958740 0.000000000000000
0.836970627307892 -17.741346359252930 1.397827267646790 0.000000000000000
0.837919712066650 -16.270999908447266 1.345218062400818 0.000000000000000
0.839499115943909 -16.301670074462891 1.095636963844299 0.000000000000000
0.841879844665527 -19.445785522460938 -0.003397108986974 0.000000000000000
0.842945933341980 -14.383438110351562 -0.334513992071152 0.000000000000000
0.847523331642151 -15.409985542297363 1.035899281501770 0.000000000000000
0.849820494651794 -19.164720535278320 1.472726106643677 0.000000000000000
0.851110160350800 -16.795318603515625 1.791267991065979 0.000000000000000
0.865425348281860 -19.326095581054688 2.574363231658936 0.000000000000000
0.870167911052704 -11.247255325317383 -0.782899677753448 0.000000000000000
0.873631775379181 -11.907971382141113 -0.437819033861160 0.000000000000000
0.876591086387634 -20.588459014892578 1.958832383155823 0.000000000000000
0.880672514438629 -11.709842681884766 -0.159872815012932 0.000000000000000
0.882323026657104 -16.570119857788086 1.241853952407837 0.000000000000000
0.884661734104156 -16.345371246337891 0.468672841787338 0.000000000000000
0.886324167251587 -15.793719291687012 2.703917741775513 0.000000000000000
0.890944838523865 -20.397790908813477 0.663040280342102 0.000000000000000
0.892598927021027 -16.312641143798828 0.310834854841232 0.000000000000000
0.897690474987030 -12.672289848327637 -0.636890470981598 0.000000000000000
0.899163305759430 -14.832862854003906 -0.687788009643555 0.000000000000000
0.901148557662964 -22.743534088134766 0.695423066616058 0.000000000000000
0.905014991760254 -28.450054168701172 2.075314521789551 0.000000000000000
0.905098855495453 -30.712924957275391 1.352283477783203 0.000000000000000
0.907764971256256 -25.385272979736328 2.414568424224854 0.000000000000000
0.908562123775482 -11.732849121093750 -0.024646822363138 0.000000000000000
0.908864915370941 -13.149076461791992 -0.306011140346527 0.000000000000000
0.916082680225372 -23.781307220458984 0.224306389689445 0.000000000000000
0.919334948062897 -17.906717300415039 1.099805474281311 0.000000000000000
0.924607753753662 -20.908996582031250 2.377207040786743 0.000000000000000
0.924729764461517 -18.248085021972656 1.437998414039612 0.000000000000000
0.935941874980927 -17.276077270507812 1.094575762748718 0.000000000000000
0.936356246471405 -19.104154586791992 2.834676504135132 0.000000000000000
0.940805375576019 -15.147719383239746 0.580385208129883 0.000000000000000
0.943617999553680 -18.828897476196289 1.447313070297241 0.000000000000000
0.943688273429871 -20.481847763061523 1.948990821838379 0.000000000000000
0.945418000221252 -12.036847114562988 -0.907842457294464 0.000000000000000
0.951273083686829 -5.632633209228516 -0.473659694194794 1.000000000000000
0.951511681079865 -11.441409111022949 -0.266552776098251 0.000000000000000
0.953705787658691 -21.567016601562500 0.410743385553360 0.000000000000000
0.956313431262970 -22.097906112670898 0.973454177379608 0.000000000000000
0.958026647567749 -31.374383926391602 1.925333023071289 0.000000000000000
0.962098240852356 -27.386369705200195 1.997944712638855 0.000000000000000
0.967536270618439 -19.517383575439453 1.462462067604065 0.000000000000000
0.969465017318726 -12.017820358276367 -0.604445159435272 0.000000000000000
0.969523131847382 -24.128490447998047 0.042146191000938 0.000000000000000
0.982760548591614 -16.358469009399414 -0.034322921186686 0.000000000000000
0.985793232917786 -20.112800598144531 1.118779063224792 0.000000000000000
