# This PCD file was generated using the MATLAB® pcwrite function
# from Computer Vision Toolbox®.
# .PCD v.7 - Point Cloud Data file format
VERSION .7
FIELDS x y z intensity
SIZE 8 8 8 8
TYPE F F F F
COUNT 1 1 1 1
WIDTH 637
HEIGHT 1
VIEWPOINT 0 0 0 1 0 0 0
POINTS 637
DATA ascii
-8.006968498229980 -17.538860321044922 0.959821403026581 0.000000000000000
-7.990840911865234 -17.406934738159180 1.736360073089600 0.000000000000000
-7.986976623535156 -15.047291755676270 1.814569592475891 0.000000000000000
-7.986340999603271 -14.920086860656738 0.549569129943848 0.000000000000000
-7.979562282562256 -13.295457839965820 0.235470071434975 0.000000000000000
-7.979490280151367 -16.981128692626953 1.187011122703552 0.000000000000000
-7.976692199707031 -18.002122879028320 1.283661365509033 0.000000000000000
-7.959536075592041 -10.192140579223633 -0.051912236958742 0.000000000000000
-7.956825256347656 -18.280250549316406 -1.114643812179565 0.000000000000000
-7.949998855590820 -14.871524810791016 0.839495658874512 0.000000000000000
-7.947062969207764 -14.774121284484863 0.899740397930145 0.000000000000000
-7.945988655090332 -18.255353927612305 -0.500491023063660 0.000000000000000
-7.943048477172852 -14.242163658142090 1.031689405441284 0.000000000000000
-7.940667152404785 -14.076325416564941 2.762551784515381 0.000000000000000
-7.937846183776855 -15.000849723815918 1.171887159347534 0.000000000000000
-7.937329769134521 -17.879577636718750 2.221916675567627 0.000000000000000
-7.927614212036133 -14.796724319458008 1.288711786270142 0.000000000000000
-7.926964759826660 -17.363616943359375 1.244368314743042 0.000000000000000
-7.878252983093262 -18.005199432373047 1.167623996734619 0.000000000000000
-7.876029014587402 -18.227479934692383 1.256211400032043 0.000000000000000
-7.872732639312744 -14.514266014099121 0.631438314914703 0.000000000000000
-7.863815307617188 -17.200653076171875 2.014540910720825 0.000000000000000
-7.854385375976562 -6.263568401336670 -0.600366115570068 0.000000000000000
-7.851647377014160 -13.367839813232422 2.650001049041748 0.000000000000000
-7.848921775817871 -16.936918258666992 1.037122845649719 0.000000000000000
-7.840326786041260 -11.086004257202148 -0.393506944179535 0.000000000000000
-7.833413124084473 -17.658794403076172 1.595039606094360 0.000000000000000
-7.827051639556885 -10.337587356567383 -0.201429426670074 0.000000000000000
-7.804734706878662 -13.799314498901367 0.575781941413879 0.000000000000000
-7.798875331878662 -17.174997329711914 1.120653390884399 0.000000000000000
-7.793408393859863 -14.187301635742188 0.743537425994873 0.000000000000000
-7.790288925170898 -14.181622505187988 0.494357526302338 0.000000000000000
-7.790277957916260 -13.234773635864258 1.880202054977417 0.000000000000000
-7.789118289947510 -7.382299900054932 -0.084288068115711 0.000000000000000
-7.788959026336670 -17.195388793945312 2.010728120803833 0.000000000000000
-7.782597064971924 -15.918596267700195 0.167004600167274 0.000000000000000
-7.773839473724365 -10.566943168640137 -0.203790426254272 0.000000000000000
-7.771604061126709 -15.727413177490234 0.940871357917786 0.000000000000000
-7.768730163574219 -13.093400955200195 0.318911194801331 0.000000000000000
-7.765174388885498 -8.630759239196777 -0.224946990609169 0.000000000000000
-7.763040065765381 -17.553022384643555 1.399346590042114 0.000000000000000
-7.762548923492432 -17.016038894653320 0.967090845108032 0.000000000000000
-7.743284702301025 -19.054143905639648 0.154359668493271 0.000000000000000
-7.737703800201416 -13.873973846435547 0.760271608829498 0.000000000000000
-7.728423595428467 -15.368934631347656 1.453621745109558 0.000000000000000
-7.725984096527100 -13.239465713500977 2.039862155914307 0.000000000000000
-7.719683170318604 -17.006900787353516 0.750143527984619 0.000000000000000
-7.713259220123291 -19.816181182861328 0.567970156669617 0.000000000000000
-7.711069583892822 -14.089225769042969 1.326127648353577 0.000000000000000
-7.710576057434082 -14.194615364074707 0.990828931331635 0.000000000000000
-7.707055091857910 -14.688493728637695 0.379323363304138 0.000000000000000
-7.692401409149170 -16.118766784667969 0.648662090301514 0.000000000000000
-7.676306247711182 -17.649242401123047 2.561172008514404 0.000000000000000
-7.670692920684814 -10.658795356750488 -0.002291966462508 0.000000000000000
-7.666878223419189 -17.434209823608398 2.163231134414673 0.000000000000000
-7.646996498107910 -14.451204299926758 1.381546974182129 0.000000000000000
-7.645161628723145 -19.242725372314453 1.190264225006104 0.000000000000000
-7.641570568084717 -13.298767089843750 0.557053804397583 0.000000000000000
-7.641433715820312 -14.382948875427246 0.748126029968262 0.000000000000000
-7.626991271972656 -14.179086685180664 0.615694463253021 0.000000000000000
-7.618101119995117 -15.883129119873047 2.610670328140259 0.000000000000000
-7.606235980987549 -13.057284355163574 1.850064396858215 0.000000000000000
-7.596914291381836 -13.955743789672852 0.454935491085052 0.000000000000000
-7.592276573181152 -8.621448516845703 -0.046115670353174 0.000000000000000
-7.591563224792480 -16.303190231323242 1.137762784957886 0.000000000000000
-7.586020946502686 -15.754142761230469 2.140747070312500 0.000000000000000
-7.583292007446289 -16.285427093505859 1.413833022117615 0.000000000000000
-7.583236217498779 -19.885610580444336 1.510612010955811 0.000000000000000
-7.578426361083984 -15.632146835327148 1.233071804046631 0.000000000000000
-7.560228347778320 -20.382181167602539 1.333431482315063 0.000000000000000
-7.546360492706299 -14.654673576354980 0.123709879815578 0.000000000000000
-7.541303634643555 -14.618517875671387 1.072363495826721 0.000000000000000
-7.536928653717041 -5.769508361816406 -0.074549235403538 0.000000000000000
-7.516533374786377 -16.273983001708984 1.798730969429016 0.000000000000000
-7.516531944274902 -13.168273925781250 1.722188472747803 0.000000000000000
-7.515990257263184 -14.560717582702637 0.847288966178894 0.000000000000000
-7.508203029632568 -8.466211318969727 -0.045425217598677 0.000000000000000
-7.504513263702393 -13.412352561950684 2.627086639404297 0.000000000000000
-7.495040893554688 -10.136736869812012 -0.365349620580673 0.000000000000000
-7.491662979125977 -17.848989486694336 -1.156826257705688 0.000000000000000
-7.491356372833252 -15.209699630737305 0.224906325340271 0.000000000000000
-7.486951828002930 -14.469128608703613 0.529056012630463 0.000000000000000
-7.472926139831543 -8.250746726989746 -0.044686596840620 0.000000000000000
-7.471170902252197 -15.861236572265625 3.646816730499268 0.000000000000000
-7.450530052185059 -8.396454811096191 -0.239059925079346 0.000000000000000
-7.450289249420166 -7.996728420257568 -0.232757657766342 0.000000000000000
-7.445552349090576 -16.136569976806641 1.892948389053345 0.000000000000000
-7.441901206970215 -14.183150291442871 0.859037876129150 0.000000000000000
-7.438279151916504 -17.380779266357422 1.487898349761963 0.000000000000000
-7.434372425079346 -13.038076400756836 0.314387619495392 0.000000000000000
-7.424799919128418 -20.009572982788086 1.391392230987549 0.000000000000000
-7.419793128967285 -10.310157775878906 -0.197328776121140 0.000000000000000
-7.417641639709473 -5.831035137176514 -0.563857376575470 0.000000000000000
-7.412833213806152 -10.697913169860840 -0.577359914779663 0.000000000000000
-7.407117843627930 -10.457964897155762 -0.568496584892273 0.000000000000000
-7.386946678161621 -15.388793945312500 1.409401416778564 0.000000000000000
-7.385098457336426 -16.075569152832031 2.621811866760254 0.000000000000000
-7.381063461303711 -15.811449050903320 2.586041450500488 0.000000000000000
-7.367756366729736 -15.641688346862793 1.643526554107666 0.000000000000000
-7.359929561614990 -16.400312423706055 1.137257695198059 0.000000000000000
-7.354448318481445 -13.109766960144043 1.840342521667480 0.000000000000000
-7.342980861663818 -15.955986976623535 0.908222675323486 0.000000000000000
-7.342276096343994 -15.912742614746094 1.108718991279602 0.000000000000000
-7.341433048248291 -5.619856357574463 -0.214653447270393 0.000000000000000
-7.339626312255859 -16.163621902465820 1.687434673309326 0.000000000000000
-7.313720703125000 -16.020338058471680 1.420028328895569 0.000000000000000
-7.309082984924316 -8.123827934265137 -0.043867688626051 0.000000000000000
-7.308949470520020 -3.579195022583008 -0.863983809947968 1.000000000000000
-7.283676147460938 -16.646333694458008 1.727179169654846 0.000000000000000
-7.275233268737793 -15.034811019897461 0.221563756465912 0.000000000000000
-7.272912502288818 -15.559926033020020 2.102831840515137 0.000000000000000
-7.256238460540771 -8.716011047363281 -0.394060105085373 0.000000000000000
-7.246984004974365 -9.366024017333984 -0.365954101085663 0.000000000000000
-7.243579387664795 -15.878422737121582 1.440999388694763 0.000000000000000
-7.232394695281982 -16.001602172851562 0.367832690477371 0.000000000000000
-7.213685035705566 -14.227565765380859 0.364783227443695 0.000000000000000
-7.183608531951904 -2.754366636276245 -0.846658110618591 1.000000000000000
-7.173500061035156 -15.487946510314941 2.089707374572754 0.000000000000000
-7.169205665588379 -16.278617858886719 1.894642949104309 0.000000000000000
-7.150811195373535 -9.421531677246094 -0.047480512410402 0.000000000000000
-7.144995212554932 -15.819999694824219 1.198614954948425 0.000000000000000
-7.130857467651367 -2.787950992584229 -0.649662375450134 1.000000000000000
-7.125142097473145 -9.414635658264160 -0.160744056105614 0.000000000000000
-7.117031574249268 -16.388391494750977 1.268189072608948 0.000000000000000
-7.111477375030518 -8.018865585327148 -0.207667216658592 0.000000000000000
-7.109571456909180 -14.099625587463379 1.681961655616760 0.000000000000000
-7.107823848724365 -13.231627464294434 0.603261113166809 0.000000000000000
-7.107735633850098 -2.722998857498169 -0.089010469615459 1.000000000000000
-7.074790954589844 -13.263278007507324 1.037972927093506 0.000000000000000
-7.073906421661377 -15.762960433959961 0.295546650886536 0.000000000000000
-7.062056064605713 -13.417644500732422 0.725661635398865 0.000000000000000
-7.056975841522217 -13.671469688415527 1.032684803009033 0.000000000000000
-7.042800903320312 -5.509174346923828 -0.207597360014915 0.000000000000000
-7.035898208618164 -17.530628204345703 1.377240896224976 0.000000000000000
-7.024884223937988 -13.650185585021973 1.267539620399475 0.000000000000000
-7.005025386810303 -19.725765228271484 1.283963441848755 0.000000000000000
-6.976074218750000 -15.923647880554199 1.576014041900635 0.000000000000000
-6.968353271484375 -15.047781944274902 0.188135504722595 0.000000000000000
-6.936903476715088 -7.039849281311035 -0.115577965974808 0.000000000000000
-6.927472114562988 -16.939752578735352 1.739670276641846 0.000000000000000
-6.923187255859375 -3.024522781372070 -1.109161019325256 1.000000000000000
-6.919310569763184 -15.275499343872070 0.286858111619949 0.000000000000000
-6.906114578247070 -16.728967666625977 1.720365762710571 0.000000000000000
-6.872092247009277 -7.970391750335693 -0.042245931923389 0.000000000000000
-6.866631984710693 -16.402341842651367 1.227822542190552 0.000000000000000
-6.844547748565674 -5.402396678924561 -0.068486019968987 0.000000000000000
-6.843360900878906 -19.726806640625000 2.556355237960815 0.000000000000000
-6.812929630279541 -16.805143356323242 1.643908262252808 0.000000000000000
-6.805885791778564 -16.417900085449219 1.501783967018127 0.000000000000000
-6.787040710449219 -15.779038429260254 1.219194769859314 0.000000000000000
-6.781914234161377 -17.295629501342773 -0.288599550724030 1.000000000000000
-6.769728183746338 -14.618862152099609 0.430303096771240 0.000000000000000
-6.760359287261963 -13.552078247070312 0.317235797643661 0.000000000000000
-6.753906250000000 -6.933565139770508 -0.113192498683929 0.000000000000000
-6.710484504699707 -14.642112731933594 0.213658362627029 0.000000000000000
-6.694056510925293 -5.312114238739014 -0.198405891656876 0.000000000000000
-6.650482654571533 -5.315475940704346 -0.197663158178329 0.000000000000000
-6.643037319183350 -14.665580749511719 0.028099786490202 0.000000000000000
-6.640794277191162 -15.668297767639160 0.291099756956100 0.000000000000000
-6.633535385131836 -14.781670570373535 1.275117397308350 0.000000000000000
-6.565071582794189 -14.457866668701172 0.210634127259254 0.000000000000000
-6.524797439575195 -7.003356933593750 -0.056801058351994 0.000000000000000
-6.498743057250977 -13.646960258483887 0.142462834715843 0.000000000000000
-6.398841857910156 -14.392987251281738 1.239653825759888 0.000000000000000
-6.391852855682373 -5.492816448211670 -0.066192679107189 0.000000000000000
-6.390088558197021 -13.585167884826660 0.458688497543335 0.000000000000000
-6.361610412597656 -14.330123901367188 0.539294064044952 0.000000000000000
-6.336355686187744 -5.320792675018311 -0.750087380409241 1.000000000000000
-6.285153865814209 -6.699098587036133 -0.195625454187393 0.000000000000000
-6.264935493469238 -5.345848560333252 -0.064684726297855 0.000000000000000
-6.238578319549561 -14.515096664428711 0.179241493344307 0.000000000000000
-6.187176704406738 -4.676609992980957 -0.060914859175682 0.000000000000000
-6.164105415344238 6.425397872924805 -1.195962071418762 0.000000000000000
-6.149893283843994 -5.127717494964600 -0.725890934467316 1.000000000000000
-6.129792690277100 -14.143440246582031 0.204479575157166 0.000000000000000
-6.074276924133301 6.869583129882812 -0.920132339000702 0.000000000000000
-6.055492401123047 -18.237483978271484 0.365620970726013 0.000000000000000
-5.987646102905273 6.827121734619141 -1.139125704765320 0.000000000000000
-5.981622219085693 18.427038192749023 -0.747644186019897 0.000000000000000
-5.975328922271729 18.442718505859375 -0.822706162929535 0.000000000000000
-5.950747013092041 6.833014011383057 -1.136636376380920 0.000000000000000
-5.905598640441895 8.098297119140625 -0.908627688884735 0.000000000000000
-5.904955863952637 -5.520737171173096 -0.063490942120552 0.000000000000000
-5.887864112854004 -5.418723583221436 -0.185779228806496 0.000000000000000
-5.861903190612793 -13.944234848022461 0.229700237512589 0.000000000000000
-5.857638835906982 -3.590410470962524 -0.146314546465874 0.000000000000000
-5.848167419433594 -4.197074890136719 -0.153298139572144 0.000000000000000
-5.831744670867920 -2.990423202514648 -1.066644430160522 1.000000000000000
-5.791989326477051 -4.146964073181152 -0.083304069936275 1.000000000000000
-5.665402889251709 -3.623038053512573 -0.726986706256866 1.000000000000000
-5.647958278656006 -3.603414773941040 -0.737270712852478 1.000000000000000
-5.445067405700684 8.906806945800781 -0.966591238975525 1.000000000000000
-5.443704128265381 4.814150810241699 -0.911599278450012 1.000000000000000
-5.408045768737793 -3.288919687271118 -0.427070230245590 1.000000000000000
-5.359184741973877 7.049985408782959 -0.802813708782196 0.000000000000000
-5.335081577301025 -2.488016366958618 -1.074679017066956 1.000000000000000
-5.301604747772217 -4.845105171203613 -0.166746363043785 0.000000000000000
-5.165465831756592 -4.589985847473145 -0.160433024168015 0.000000000000000
-5.133180618286133 -3.085423231124878 -0.647452354431152 0.000000000000000
-5.074063777923584 -1.226233720779419 -0.352211773395538 1.000000000000000
-4.987267971038818 -5.660131454467773 -0.044766731560230 0.000000000000000
-4.921960353851318 -1.099106550216675 -0.359730720520020 1.000000000000000
-4.894484043121338 -2.029964685440063 -1.101369380950928 1.000000000000000
-4.894100189208984 -5.180071830749512 -0.151765152812004 0.000000000000000
-4.892343997955322 -3.218316793441772 -0.012264768593013 1.000000000000000
-4.890321731567383 -2.009257316589355 -1.098927259445190 1.000000000000000
-4.843238353729248 -3.212847471237183 -0.001014385372400 0.000000000000000
-4.830882072448730 -8.384556770324707 -0.727593600749969 1.000000000000000
-4.828608989715576 -2.920739889144897 -0.435214668512344 0.000000000000000
-4.799073696136475 9.687193870544434 -1.260410666465759 1.000000000000000
-4.782515525817871 -4.524813652038574 -0.051710084080696 0.000000000000000
-4.751999855041504 -2.089346170425415 -1.252488136291504 0.000000000000000
-4.718982219696045 9.677055358886719 -1.226670026779175 0.000000000000000
-4.671038627624512 -2.221870422363281 -0.759388983249664 0.000000000000000
-4.649479866027832 -5.025554180145264 -0.145803570747375 0.000000000000000
-4.648915290832520 -8.267694473266602 -0.859873831272125 0.000000000000000
-4.646266937255859 9.572425842285156 -1.429190516471863 0.000000000000000
-4.622784614562988 -0.916510105133057 -1.137090325355530 0.000000000000000
-4.613851547241211 -0.670785546302795 -0.449755221605301 1.000000000000000
-4.548451423645020 -5.946117401123047 -0.159430056810379 0.000000000000000
-4.498670578002930 -4.728364944458008 -0.138990312814713 0.000000000000000
-4.491312026977539 -4.495391368865967 -0.135328188538551 0.000000000000000
-4.467806339263916 -3.942230463027954 -0.138336360454559 0.000000000000000
-4.443361759185791 -3.731595993041992 -0.134715467691422 0.000000000000000
-4.293848037719727 -5.613278388977051 -0.259144306182861 0.000000000000000
-4.232110977172852 10.044223785400391 -1.030297875404358 1.000000000000000
-4.214126586914062 10.169279098510742 -1.190005421638489 0.000000000000000
-4.179881572723389 -2.160354852676392 -0.163485631346703 0.000000000000000
-4.085996150970459 -0.575558722019196 -0.495688021183014 0.000000000000000
-4.057469367980957 -0.614939212799072 -0.040111217647791 0.000000000000000
-4.052783012390137 -1.639241576194763 -0.798107206821442 0.000000000000000
-3.972254753112793 4.662271976470947 -0.822689831256866 0.000000000000000
-3.954572677612305 0.386425048112869 -0.583340883255005 0.000000000000000
-3.952327013015747 -1.296249032020569 -1.196007966995239 1.000000000000000
-3.949782848358154 4.603246688842773 -0.814702570438385 0.000000000000000
-3.927047967910767 -1.861172437667847 -0.478241503238678 0.000000000000000
-3.916084289550781 -1.858572721481323 -0.468607604503632 0.000000000000000
-3.820469379425049 -1.792241811752319 -0.016940122470260 0.000000000000000
-3.796866178512573 -12.514233589172363 -0.253385007381439 0.000000000000000
-3.781810045242310 -10.191843986511230 -0.796399116516113 1.000000000000000
-3.739124298095703 -1.821996569633484 -0.610648632049561 0.000000000000000
-3.672259569168091 9.497625350952148 -1.494956254959106 0.000000000000000
-3.668228387832642 9.500998497009277 -1.367954730987549 1.000000000000000
-3.627364873886108 -12.258349418640137 -0.075861334800720 1.000000000000000
-3.617443561553955 -12.383530616760254 -0.274744331836700 0.000000000000000
-3.612221240997314 -11.504797935485840 -0.187325641512871 0.000000000000000
-3.603601217269897 -1.590279579162598 -0.719086706638336 0.000000000000000
-3.602662801742554 -1.736323237419128 -0.077487766742706 0.000000000000000
-3.600909709930420 -10.558872222900391 -0.001947089331225 1.000000000000000
-3.574944734573364 -9.346194267272949 -0.713769495487213 1.000000000000000
-3.570939540863037 -11.340753555297852 -1.331539273262024 0.000000000000000
-3.566403150558472 -1.155905485153198 -0.450365245342255 0.000000000000000
-3.489160060882568 -9.981342315673828 -0.367391258478165 0.000000000000000
-3.434677839279175 -1.947047710418701 -0.434486538171768 0.000000000000000
-3.426774501800537 -0.691954970359802 -0.020745558664203 1.000000000000000
-3.426038503646851 -0.718358337879181 -0.283491551876068 1.000000000000000
-3.389578342437744 -0.323036491870880 -0.396976083517075 0.000000000000000
-3.388718366622925 3.762759447097778 -1.052528262138367 1.000000000000000
-3.350352764129639 -1.618830084800720 -0.286964863538742 0.000000000000000
-3.342757940292358 -0.085081435739994 -0.032683216035366 0.000000000000000
-3.338708400726318 -12.236143112182617 -1.198940038681030 0.000000000000000
-3.329877614974976 -0.342230528593063 -0.290506452322006 0.000000000000000
-3.321469306945801 -4.373653411865234 -0.032589990645647 0.000000000000000
-3.316416501998901 -1.588177323341370 -0.283581584692001 0.000000000000000
-3.309556722640991 4.975813865661621 -0.877335429191589 1.000000000000000
-3.275210857391357 -0.325870722532272 -0.063772432506084 0.000000000000000
-3.251746177673340 -1.499626398086548 -0.582799077033997 0.000000000000000
-3.249456167221069 -1.282353401184082 -0.726106047630310 0.000000000000000
-3.236619710922241 -3.967923164367676 -0.187762349843979 0.000000000000000
-3.231782674789429 -12.352193832397461 -0.026741215959191 0.000000000000000
-3.216972112655640 -12.015970230102539 -0.145466387271881 0.000000000000000
-3.192719459533691 -1.278420090675354 -0.627853870391846 0.000000000000000
-3.188439130783081 -8.881030082702637 -0.273461818695068 0.000000000000000
-3.156074523925781 -9.197704315185547 -0.881542265415192 0.000000000000000
-3.116096019744873 -0.219976216554642 -0.030533002689481 0.000000000000000
-3.066373109817505 -1.652591466903687 -0.067491851747036 0.000000000000000
-3.056806325912476 5.963766098022461 -0.374673962593079 0.000000000000000
-2.946742057800293 -12.591174125671387 -1.122254014015198 0.000000000000000
-2.917067289352417 -7.375567913055420 -0.719029307365417 1.000000000000000
-2.897599697113037 -12.355919837951660 -0.148413136601448 0.000000000000000
-2.889252901077271 -12.300045967102051 -0.172015741467476 0.000000000000000
-2.850854158401489 2.120939016342163 -0.648686587810516 1.000000000000000
-2.841854572296143 1.711070299148560 -0.313568919897079 1.000000000000000
-2.810910701751709 -12.010778427124023 -1.481816172599792 1.000000000000000
-2.778261899948120 -2.685374021530151 -0.022929301485419 0.000000000000000
-2.771437883377075 -3.822829008102417 -0.145912155508995 0.000000000000000
-2.743026018142700 -11.880407333374023 -1.318120121955872 0.000000000000000
-2.687709569931030 -11.661249160766602 -0.346809834241867 1.000000000000000
-2.641161680221558 -9.453846931457520 -1.318433642387390 1.000000000000000
-2.533091783523560 -7.918616294860840 -0.753698766231537 1.000000000000000
-2.510472774505615 -0.383618354797363 -0.044329114258289 0.000000000000000
-2.465058565139771 -11.757533073425293 -0.741070389747620 0.000000000000000
-2.441576957702637 -9.381410598754883 -0.860043704509735 1.000000000000000
-2.441417455673218 -10.113236427307129 -0.581660091876984 0.000000000000000
-2.421256780624390 -17.475942611694336 1.014192342758179 0.000000000000000
-2.400777101516724 -16.894100189208984 0.980906248092651 0.000000000000000
-2.392416000366211 -10.201720237731934 -0.606020927429199 1.000000000000000
-2.337798833847046 -2.457677125930786 -0.013616325333714 0.000000000000000
-2.267712354660034 -2.176634073257446 -0.066940180957317 1.000000000000000
-2.246572017669678 -10.241859436035156 -0.747921109199524 1.000000000000000
-2.221210718154907 -9.903831481933594 -0.782771229743958 1.000000000000000
-2.195343494415283 -10.358501434326172 -0.571603655815125 1.000000000000000
-2.189974069595337 -12.519597053527832 -1.299968719482422 0.000000000000000
-2.177051067352295 -12.874236106872559 -0.956555724143982 1.000000000000000
-2.165716171264648 -11.177045822143555 -0.264324545860291 1.000000000000000
-2.164588928222656 -9.909422874450684 -1.037451505661011 1.000000000000000
-2.150172710418701 -13.138957023620605 -0.898301601409912 1.000000000000000
-2.136363506317139 -21.859035491943359 0.460063099861145 0.000000000000000
-2.129516363143921 -1.017187356948853 -0.009473622776568 0.000000000000000
-2.121892929077148 -11.212639808654785 -0.089628726243973 1.000000000000000
-2.119508504867554 -13.353392601013184 -1.225708365440369 0.000000000000000
-2.101928472518921 -13.140398025512695 -0.872216224670410 1.000000000000000
-2.093838930130005 -9.824602127075195 -0.464936554431915 1.000000000000000
-2.090043067932129 -10.557419776916504 -0.456719756126404 0.000000000000000
-2.083847045898438 -13.159867286682129 -1.388636708259583 0.000000000000000
-2.071019411087036 -4.565324783325195 -0.386618256568909 1.000000000000000
-2.057466745376587 -10.787663459777832 -0.466047495603561 1.000000000000000
-2.047295331954956 -10.559974670410156 -0.270399838685989 1.000000000000000
-2.028116941452026 -11.310311317443848 -0.975000858306885 1.000000000000000
-2.002392530441284 -12.961614608764648 -0.128191694617271 0.000000000000000
-1.996660590171814 -11.827565193176270 -1.040981411933899 0.000000000000000
-1.996459364891052 -11.354935646057129 -1.384968519210815 1.000000000000000
-1.993236780166626 -12.643358230590820 -1.160342097282410 1.000000000000000
-1.985125303268433 -9.776413917541504 -0.040046129375696 1.000000000000000
-1.980620265007019 -11.712619781494141 -1.490123748779297 1.000000000000000
-1.972188472747803 -11.420131683349609 -1.453779339790344 0.000000000000000
-1.961603999137878 3.057974100112915 -0.533373415470123 0.000000000000000
-1.946098685264587 -12.334548950195312 -1.059548258781433 0.000000000000000
-1.928629040718079 -1.985470414161682 -0.011111435480416 0.000000000000000
-1.917338728904724 -9.992287635803223 -1.119688868522644 1.000000000000000
-1.893916606903076 -1.963401675224304 -0.010950865224004 0.000000000000000
-1.892112016677856 -12.750218391418457 -0.398324102163315 0.000000000000000
-1.880574107170105 -11.790891647338867 -1.313960909843445 1.000000000000000
-1.780467271804810 -12.824563026428223 -1.073584556579590 1.000000000000000
-1.761902809143066 -2.442219972610474 -0.058348290622234 0.000000000000000
-1.739702820777893 -10.933412551879883 -0.682947278022766 1.000000000000000
-1.726570606231689 -12.149757385253906 -0.993834853172302 1.000000000000000
-1.638706922531128 -12.841896057128906 -0.225973770022392 0.000000000000000
-1.630483627319336 -12.777453422546387 -0.422807663679123 0.000000000000000
-1.605281472206116 -11.363170623779297 -0.002002940047532 0.000000000000000
-1.596590638160706 -11.935695648193359 -0.905443072319031 0.000000000000000
-1.567934989929199 -4.431645393371582 -0.172371998429298 0.000000000000000
-1.548969864845276 -11.545969963073730 -0.898418426513672 1.000000000000000
-1.546853065490723 -12.835096359252930 -0.027076318860054 1.000000000000000
-1.484328389167786 -11.482033729553223 -1.349811315536499 1.000000000000000
-1.481222033500671 -0.028027435764670 -0.357451677322388 1.000000000000000
-1.474721789360046 -10.910140037536621 -0.382531404495239 1.000000000000000
-1.453568339347839 -13.136830329895020 -0.281472414731979 1.000000000000000
-1.441089510917664 -12.890250205993652 -0.375894129276276 0.000000000000000
-1.423715591430664 -11.433538436889648 -0.223242253065109 1.000000000000000
-1.387337923049927 -20.444852828979492 1.217441439628601 0.000000000000000
-1.365344643592834 -9.354532241821289 -0.346649467945099 1.000000000000000
-1.364151954650879 -10.356174468994141 -0.222452640533447 1.000000000000000
-1.357051253318787 -9.315911293029785 -0.182406216859818 1.000000000000000
-1.337434291839600 -11.727593421936035 -0.819178402423859 1.000000000000000
-1.333423137664795 -12.448374748229980 -0.459072381258011 1.000000000000000
-1.291145205497742 -11.920077323913574 -1.440310001373291 1.000000000000000
-1.281875491142273 -10.363764762878418 -0.162224620580673 1.000000000000000
-1.272212147712708 -11.745284080505371 -0.842691957950592 1.000000000000000
-1.258252978324890 -20.373828887939453 1.448873519897461 0.000000000000000
-1.242814302444458 -11.860439300537109 -0.666732072830200 1.000000000000000
-1.241009473800659 -10.992836952209473 -0.171854957938194 1.000000000000000
-1.200427055358887 -11.343212127685547 -0.352487176656723 1.000000000000000
-1.196136355400085 -11.244534492492676 -0.023683400824666 1.000000000000000
-1.195714712142944 -19.361198425292969 1.077729105949402 0.000000000000000
-1.167738556861877 -1.421426057815552 -0.039176188409328 0.000000000000000
-1.155186414718628 -1.416196942329407 -0.038920693099499 0.000000000000000
-1.150651335716248 -19.752000808715820 1.099252581596375 0.000000000000000
-1.147911310195923 -10.744828224182129 -0.209371954202652 1.000000000000000
-1.141562700271606 -13.053382873535156 -0.354562312364578 1.000000000000000
-1.135348200798035 -10.767765045166016 -0.313785851001740 1.000000000000000
-1.121373295783997 -12.185143470764160 -0.613457739353180 0.000000000000000
-1.115747213363647 -8.125118255615234 -0.490124046802521 0.000000000000000
-1.102325916290283 -10.079905509948730 -0.001769763883203 1.000000000000000
-1.059893369674683 -12.408920288085938 -0.217387169599533 0.000000000000000
-1.049499630928040 -12.287233352661133 -0.025828059762716 1.000000000000000
-1.037050127983093 -10.774118423461914 -0.043450206518173 0.000000000000000
-1.004088163375854 -10.774662971496582 -0.563335120677948 1.000000000000000
-0.994207084178925 -9.154803276062012 -0.249178215861320 0.000000000000000
-0.948767423629761 -10.070682525634766 -1.215127468109131 1.000000000000000
-0.817226529121399 -16.964273452758789 1.107232809066772 0.000000000000000
-0.805815696716309 -12.522071838378906 -0.026280447840691 1.000000000000000
-0.798302650451660 -11.120566368103027 -0.773760795593262 1.000000000000000
-0.777819335460663 -10.150343894958496 -0.569156050682068 0.000000000000000
-0.715884625911713 -25.757913589477539 -0.647753417491913 0.000000000000000
-0.696604073047638 -19.662822723388672 1.548468828201294 0.000000000000000
-0.680632591247559 -16.252958297729492 1.311685681343079 0.000000000000000
-0.648824691772461 -9.375038146972656 -0.851928830146790 1.000000000000000
-0.640604078769684 -21.234222412109375 3.631283521652222 0.000000000000000
-0.628991246223450 -9.830505371093750 -1.064900159835815 1.000000000000000
-0.628638207912445 -15.624565124511719 2.317468404769897 0.000000000000000
-0.621428966522217 -9.882846832275391 -1.032044410705566 1.000000000000000
-0.612774789333344 -11.043267250061035 -0.938476324081421 0.000000000000000
-0.591906487941742 -9.332697868347168 -0.992779076099396 1.000000000000000
-0.583019375801086 -9.865677833557129 -0.704946994781494 1.000000000000000
-0.577111124992371 -9.365947723388672 -0.073701016604900 0.000000000000000
-0.571732640266418 -21.433399200439453 3.664981126785278 0.000000000000000
-0.552174329757690 2.181528329849243 -0.086842104792595 0.000000000000000
-0.542357861995697 -18.954540252685547 0.907507359981537 0.000000000000000
-0.538258671760559 -26.220785140991211 1.406594157218933 0.000000000000000
-0.535562098026276 -15.398105621337891 0.796682894229889 0.000000000000000
-0.508507549762726 -23.511484146118164 1.487804770469666 0.000000000000000
-0.507538616657257 -21.037765502929688 1.088132143020630 0.000000000000000
-0.497444212436676 -15.758827209472656 0.542319178581238 0.000000000000000
-0.495678275823593 -14.724895477294922 -0.285464942455292 0.000000000000000
-0.483715981245041 -21.581174850463867 0.867007255554199 0.000000000000000
-0.480964690446854 -25.418952941894531 1.021113395690918 0.000000000000000
-0.451715171337128 -19.485511779785156 0.820312142372131 0.000000000000000
-0.430194646120071 -23.720666885375977 1.500937700271606 0.000000000000000
-0.423426210880280 -20.522102355957031 0.745496809482574 0.000000000000000
-0.417888134717941 -30.616241455078125 1.583244681358337 0.000000000000000
-0.411209702491760 -20.592132568359375 1.144296646118164 0.000000000000000
-0.393924802541733 -20.006410598754883 0.842178165912628 0.000000000000000
-0.393425434827805 1.828779101371765 -0.872284173965454 0.000000000000000
-0.384844452142715 -19.545242309570312 0.522152364253998 0.000000000000000
-0.378538697957993 -20.420124053955078 0.584753513336182 0.000000000000000
-0.375383824110031 -23.174697875976562 1.332361340522766 0.000000000000000
-0.362292587757111 -21.266269683837891 1.468647718429565 0.000000000000000
-0.352395743131638 -30.089382171630859 1.845743417739868 0.000000000000000
-0.341412961483002 -5.528211593627930 -0.117954403162003 0.000000000000000
-0.317220270633698 -31.228120803833008 2.096175909042358 0.000000000000000
-0.307472318410873 -15.080847740173340 0.983368515968323 0.000000000000000
-0.290651530027390 -17.061000823974609 0.915164530277252 0.000000000000000
-0.287285476922989 -21.210458755493164 1.792440891265869 0.000000000000000
-0.277412801980972 -9.695133209228516 -0.132047548890114 0.000000000000000
-0.220740154385567 -21.956640243530273 1.855422377586365 0.000000000000000
-0.201050937175751 -21.410884857177734 -0.085953049361706 0.000000000000000
-0.199783235788345 -20.152227401733398 1.313846945762634 0.000000000000000
-0.188700467348099 -31.986639022827148 1.838768720626831 0.000000000000000
-0.186354026198387 -19.845739364624023 1.799198508262634 0.000000000000000
-0.170656830072403 -8.292231559753418 -0.751893043518066 1.000000000000000
-0.129704371094704 -21.986204147338867 0.249440625309944 0.000000000000000
-0.126794606447220 -19.218784332275391 1.252955555915833 0.000000000000000
-0.118626944720745 -24.188421249389648 0.739032089710236 0.000000000000000
-0.102656155824661 -9.985651969909668 -0.442991226911545 0.000000000000000
-0.078523591160774 -32.603042602539062 1.372176647186279 0.000000000000000
-0.074356883764267 -27.665594100952148 1.111169099807739 0.000000000000000
-0.065344631671906 -27.131130218505859 1.559624791145325 0.000000000000000
-0.061238851398230 -16.869136810302734 1.360230922698975 0.000000000000000
-0.042138896882534 -10.101890563964844 -0.603706836700439 0.000000000000000
-0.037066128104925 -18.962486267089844 1.802504181861877 0.000000000000000
-0.035042908042669 -24.788410186767578 0.757355213165283 0.000000000000000
-0.005502737592906 -17.514818191528320 1.141841888427734 0.000000000000000
0.002266771392897 -16.238306045532227 0.839646339416504 0.000000000000000
0.012061209417880 -28.789402008056641 2.432694911956787 0.000000000000000
0.021345939487219 -19.726526260375977 0.830235898494720 0.000000000000000
0.026281984522939 -17.508743286132812 2.594837427139282 0.000000000000000
0.028693465515971 -10.211135864257812 -0.767782211303711 0.000000000000000
0.030021570622921 -8.151928901672363 -0.361625492572784 0.000000000000000
0.030897362157702 -20.117292404174805 1.912274479866028 0.000000000000000
0.042580425739288 -15.153083801269531 1.192578315734863 0.000000000000000
0.048711072653532 -17.334794998168945 0.562941610813141 0.000000000000000
0.061068717390299 -18.513105392456055 1.135559558868408 0.000000000000000
0.062518835067749 -17.220880508422852 0.890459001064301 0.000000000000000
0.075376689434052 -1.846180438995361 -0.032252047210932 0.000000000000000
0.084818378090858 -15.727187156677246 0.722429811954498 0.000000000000000
0.087023504078388 -20.268821716308594 1.438678145408630 0.000000000000000
0.089731626212597 -20.899576187133789 1.161160469055176 0.000000000000000
0.092425003647804 -23.853185653686523 1.555070161819458 0.000000000000000
0.094299130141735 -15.392636299133301 1.639594912528992 0.000000000000000
0.094483494758606 -4.702659606933594 -0.281093537807465 1.000000000000000
0.095918387174606 -19.081745147705078 1.813859820365906 0.000000000000000
0.102727726101875 -2.308470726013184 -0.075848177075386 0.000000000000000
0.109983175992966 -20.393293380737305 2.046335935592651 0.000000000000000
0.111030526459217 -5.340603828430176 -0.154807209968567 1.000000000000000
0.111657321453094 -18.226049423217773 0.591893553733826 0.000000000000000
0.120626285672188 -16.300127029418945 0.874247789382935 0.000000000000000
0.121162354946136 -16.372566223144531 1.130555510520935 0.000000000000000
0.122789308428764 -16.592412948608398 1.402091622352600 0.000000000000000
0.136742413043976 -16.957904815673828 1.537371993064880 0.000000000000000
0.143126934766769 -4.577259063720703 -0.203148424625397 0.000000000000000
0.147741481661797 -17.417133331298828 2.581350326538086 0.000000000000000
0.147947162389755 -15.383860588073730 -1.156771779060364 0.000000000000000
0.148856058716774 -22.326299667358398 0.767964661121368 0.000000000000000
0.160597816109657 -20.630741119384766 0.828641295433044 0.000000000000000
0.164540737867355 -20.405273437500000 0.858829975128174 0.000000000000000
0.169186428189278 -15.534088134765625 1.072691440582275 0.000000000000000
0.195131465792656 -16.296821594238281 2.415397644042969 0.000000000000000
0.195190325379372 -22.101318359375000 0.887715280056000 0.000000000000000
0.205224543809891 -20.203010559082031 0.694949626922607 0.000000000000000
0.223761677742004 -20.611030578613281 1.343772053718567 0.000000000000000
0.223927631974220 -21.101245880126953 2.583576202392578 0.000000000000000
0.227884396910667 -17.384744644165039 1.368326783180237 0.000000000000000
0.228467926383018 -18.461971282958984 0.564107418060303 0.000000000000000
0.232397481799126 -3.451536178588867 -0.067026920616627 0.000000000000000
0.233881831169128 -15.544478416442871 0.654298543930054 0.000000000000000
0.237283200025558 -19.174312591552734 0.880828440189362 0.000000000000000
0.248403981328011 -4.851605415344238 -0.140786483883858 0.000000000000000
0.258955806493759 -8.519523620605469 -1.144843459129333 1.000000000000000
0.272378176450729 -12.917049407958984 -0.324781388044357 0.000000000000000
0.274767547845840 -16.552621841430664 1.047347903251648 0.000000000000000
0.277659773826599 -15.534152030944824 1.312840104103088 0.000000000000000
0.290539532899857 -15.912803649902344 0.884239315986633 0.000000000000000
0.292250394821167 -15.915226936340332 0.669941186904907 0.000000000000000
0.303133934736252 -26.235025405883789 1.104233980178833 0.000000000000000
0.312591373920441 -27.053529739379883 1.555263161659241 0.000000000000000
0.313919365406036 -17.193311691284180 2.548511505126953 0.000000000000000
0.319309353828430 -15.475848197937012 1.009130239486694 0.000000000000000
0.323152720928192 -26.910604476928711 1.598899960517883 0.000000000000000
0.337163597345352 -16.781402587890625 0.803295016288757 0.000000000000000
0.343358635902405 -16.641435623168945 1.890570163726807 0.000000000000000
0.344752162694931 -27.131546020507812 1.194174170494080 0.000000000000000
0.346061527729034 -21.811077117919922 0.666472554206848 0.000000000000000
0.347387701272964 -1.924531817436218 -0.037891518324614 0.000000000000000
0.356744021177292 -5.056023120880127 -0.185856878757477 0.000000000000000
0.365658015012741 -2.042877674102783 -0.052170086652040 0.000000000000000
0.369919687509537 -17.974405288696289 1.102744221687317 0.000000000000000
0.377298146486282 -20.664558410644531 1.466998577117920 0.000000000000000
0.379911243915558 -15.282877922058105 1.055607676506042 0.000000000000000
0.382858067750931 -15.688018798828125 1.053311705589294 0.000000000000000
0.388240754604340 -15.047142982482910 1.430799245834351 0.000000000000000
0.400548309087753 -9.061548233032227 -0.682006537914276 0.000000000000000
0.402405619621277 -17.190120697021484 1.353262662887573 0.000000000000000
0.411717772483826 -15.957046508789062 3.320175409317017 0.000000000000000
0.413376659154892 -23.127065658569336 1.240570664405823 0.000000000000000
0.417690575122833 -19.549247741699219 0.747759938240051 0.000000000000000
0.422493517398834 -17.512546539306641 0.602546334266663 0.000000000000000
0.423140019178391 -21.060646057128906 0.684072613716125 0.000000000000000
0.425197839736938 -21.964719772338867 1.009125828742981 0.000000000000000
0.428093224763870 -22.114288330078125 1.356696128845215 0.000000000000000
0.437434732913971 -29.623081207275391 1.645994186401367 0.000000000000000
0.451572537422180 -18.165632247924805 1.535463809967041 0.000000000000000
0.452948063611984 -15.705040931701660 1.424335360527039 0.000000000000000
0.453050047159195 -14.304970741271973 -0.332285761833191 0.000000000000000
0.456289976835251 -20.978677749633789 1.165820121765137 0.000000000000000
0.464348465204239 -17.260654449462891 0.560734450817108 0.000000000000000
0.474864631891251 -19.129486083984375 1.247491002082825 0.000000000000000
0.475096195936203 -16.861064910888672 0.904667496681213 0.000000000000000
0.478695154190063 -25.205816268920898 2.396399497985840 0.000000000000000
0.480767041444778 4.236734867095947 -0.025302937254310 0.000000000000000
0.484518527984619 -5.975028514862061 -0.127663284540176 0.000000000000000
0.485625058412552 -6.556549549102783 -0.140012294054031 0.000000000000000
0.486702650785446 -9.346131324768066 -0.415160208940506 0.000000000000000
0.491339683532715 -7.534683227539062 -0.567738950252533 0.000000000000000
0.495889753103256 -10.861756324768066 -0.252440631389618 0.000000000000000
0.499332517385483 -26.292482376098633 0.752921640872955 0.000000000000000
0.502488434314728 -17.152650833129883 1.284244060516357 0.000000000000000
0.502741098403931 -10.853807449340820 -0.377530992031097 0.000000000000000
0.521565616130829 -24.734319686889648 2.042677640914917 0.000000000000000
0.526325762271881 -16.330324172973633 0.907759845256805 0.000000000000000
0.532872974872589 -17.859714508056641 0.545906543731689 0.000000000000000
0.533226549625397 -15.163333892822266 -0.585528671741486 0.000000000000000
0.537145197391510 -28.283517837524414 1.245001316070557 0.000000000000000
0.539309620857239 -11.964073181152344 -0.531270384788513 0.000000000000000
0.540983140468597 -13.060015678405762 -0.353696703910828 0.000000000000000
0.542019128799438 -15.172118186950684 -0.556691229343414 0.000000000000000
0.545305669307709 -10.072032928466797 -0.156694948673248 0.000000000000000
0.545630216598511 -6.337205886840820 -0.380120515823364 0.000000000000000
0.546657383441925 -27.519292831420898 0.788066387176514 0.000000000000000
0.546809554100037 -15.800886154174805 1.795770764350891 0.000000000000000
0.556536018848419 -11.494322776794434 -0.311391592025757 0.000000000000000
0.557033181190491 -25.165885925292969 3.081820249557495 0.000000000000000
0.558914840221405 -15.553750991821289 1.905478715896606 0.000000000000000
0.579399108886719 -13.743764877319336 -0.742588877677917 0.000000000000000
0.589289724826813 -17.415378570556641 -0.304160565137863 0.000000000000000
0.592062830924988 -22.008022308349609 1.392843961715698 0.000000000000000
0.593191504478455 -6.369023323059082 -0.382268130779266 0.000000000000000
0.594300150871277 -8.228481292724609 -1.108101963996887 1.000000000000000
0.606180667877197 -15.414585113525391 0.412040054798126 0.000000000000000
0.610241770744324 -11.918699264526367 -0.897345423698425 0.000000000000000
0.616133928298950 -10.688964843750000 -0.166325286030769 0.000000000000000
0.622837901115417 -20.491071701049805 0.981125116348267 0.000000000000000
0.624302327632904 -20.066417694091797 0.690549433231354 0.000000000000000
0.629782259464264 -15.038710594177246 0.778299510478973 0.000000000000000
0.630588054656982 -32.574691772460938 0.995433449745178 0.000000000000000
0.635496854782104 -15.611835479736328 0.988502502441406 0.000000000000000
0.646883368492126 -7.138407230377197 -0.070057801902294 0.000000000000000
0.651961386203766 -13.339859008789062 -0.335738122463226 0.000000000000000
0.659607410430908 -10.380074501037598 -0.381387740373611 0.000000000000000
0.661576330661774 -19.117244720458984 0.657960832118988 0.000000000000000
0.663465678691864 -17.830253601074219 0.579429924488068 0.000000000000000
0.681224346160889 -7.314220428466797 -0.665941774845123 1.000000000000000
0.693175613880157 -17.364360809326172 2.575486183166504 0.000000000000000
0.693351447582245 -19.874799728393555 0.722268104553223 0.000000000000000
0.695782303810120 -17.092828750610352 0.555541276931763 0.000000000000000
0.697510480880737 -6.183372974395752 -0.132517725229263 0.000000000000000
0.698603630065918 -17.325830459594727 0.529782176017761 0.000000000000000
0.698810160160065 -22.064800262451172 0.844210624694824 0.000000000000000
0.703797817230225 -25.483207702636719 0.876868546009064 0.000000000000000
0.712777137756348 -15.388329505920410 1.396527528762817 0.000000000000000
0.716035366058350 -3.969221115112305 -0.147894009947777 0.000000000000000
0.719633460044861 -16.364328384399414 0.720901250839233 0.000000000000000
0.730666100978851 -17.331926345825195 0.663384735584259 0.000000000000000
0.734457194805145 -16.350278854370117 1.858970284461975 0.000000000000000
0.746858298778534 -15.194537162780762 0.581760942935944 0.000000000000000
0.748920798301697 -18.597919464111328 0.747575044631958 0.000000000000000
0.749944806098938 -20.364685058593750 0.622619271278381 0.000000000000000
0.756854712963104 -19.297592163085938 0.775667309761047 0.000000000000000
0.756871163845062 -7.397321224212646 -0.029849939048290 0.000000000000000
0.764890372753143 -16.414272308349609 1.356738209724426 0.000000000000000
0.767909288406372 -22.659040451049805 0.736264228820801 0.000000000000000
0.773644685745239 -17.747833251953125 1.547960400581360 0.000000000000000
0.774375617504120 -14.303052902221680 -0.002500009723008 0.000000000000000
0.774610102176666 -16.723258972167969 2.861623764038086 0.000000000000000
0.775939524173737 -13.331741333007812 -1.004115104675293 0.000000000000000
0.776298463344574 -4.089658260345459 -0.104641720652580 1.000000000000000
0.776332974433899 -19.794231414794922 1.100583910942078 0.000000000000000
0.781621932983398 -14.108432769775391 -0.409497499465942 0.000000000000000
0.795212805271149 -17.001140594482422 3.540108442306519 0.000000000000000
0.799123704433441 -11.819258689880371 -0.571088194847107 0.000000000000000
0.800312757492065 -18.264368057250977 0.277620255947113 0.000000000000000
0.806969106197357 -15.408165931701660 1.035631418228149 0.000000000000000
0.807769775390625 -7.710011005401611 -0.702778041362762 1.000000000000000
0.809435665607452 -15.455261230468750 1.894784808158875 0.000000000000000
0.809503257274628 -26.019172668457031 1.295937895774841 0.000000000000000
0.814763247966766 -18.432273864746094 0.599164068698883 0.000000000000000
0.815176367759705 -16.584442138671875 1.146537065505981 0.000000000000000
0.817102670669556 -3.464959383010864 -0.000621337210760 0.000000000000000
0.819877505302429 -24.898412704467773 3.691999197006226 0.000000000000000
0.823714375495911 -16.209972381591797 0.745556414127350 0.000000000000000
0.831022381782532 -20.061927795410156 0.999598443508148 0.000000000000000
0.831170618534088 -11.056803703308105 -0.001935221021995 0.000000000000000
0.846436917781830 -19.558946609497070 1.465148925781250 0.000000000000000
0.850672841072083 -22.003469467163086 0.842070639133453 0.000000000000000
0.855232179164886 -4.390785694122314 -0.155429422855377 0.000000000000000
0.861417114734650 -15.417209625244141 1.036435127258301 0.000000000000000
0.865507006645203 -19.752201080322266 0.908176600933075 0.000000000000000
0.873008906841278 -20.725585937500000 1.352359294891357 0.000000000000000
0.873301565647125 -15.004559516906738 0.950871646404266 0.000000000000000
0.875778019428253 -24.514648437500000 1.741140365600586 0.000000000000000
0.882474303245544 -4.450299263000488 -0.166362449526787 0.000000000000000
0.884329617023468 -18.906398773193359 1.416489720344543 0.000000000000000
0.885016262531281 -12.643630027770996 -0.489123135805130 0.000000000000000
0.885338723659515 -18.711065292358398 -0.003269350621849 0.000000000000000
0.886408805847168 -8.847844123840332 -0.531405150890350 0.000000000000000
0.888387262821198 -17.832668304443359 1.618628621101379 0.000000000000000
0.907559454441071 -7.274929046630859 -0.099811598658562 0.000000000000000
0.915886223316193 -20.389198303222656 1.645715475082397 0.000000000000000
0.922780513763428 -6.998834609985352 -0.421878933906555 0.000000000000000
0.925547659397125 -7.366784095764160 -0.329362809658051 1.000000000000000
0.930318593978882 -18.713785171508789 0.752551376819611 0.000000000000000
0.930329859256744 -3.663717031478882 -0.007916807197034 0.000000000000000
0.941100537776947 -21.477361679077148 0.656822383403778 0.000000000000000
0.944007813930511 -10.895176887512207 -0.295919418334961 0.000000000000000
0.944017469882965 -26.347572326660156 1.515549540519714 0.000000000000000
0.952966749668121 -8.602946281433105 -0.650815367698669 0.000000000000000
0.953363597393036 -15.315353393554688 0.763919174671173 0.000000000000000
