# This PCD file was generated using the MATLAB® pcwrite function
# from Computer Vision Toolbox®.
# .PCD v.7 - Point Cloud Data file format
VERSION .7
FIELDS x y z intensity
SIZE 8 8 8 8
TYPE F F F F
COUNT 1 1 1 1
WIDTH 649
HEIGHT 1
VIEWPOINT 0 0 0 1 0 0 0
POINTS 649
DATA ascii
0.336060494184494 -3.210337638854980 0.229112327098846 0.000000000000000
0.338172942399979 -11.274753570556641 0.062999084591866 1.000000000000000
0.338451534509659 -3.321038007736206 0.894478619098663 0.000000000000000
0.341394960880280 -11.010219573974609 0.103821821510792 0.000000000000000
0.347167730331421 -11.534341812133789 0.441288411617279 0.000000000000000
0.351180553436279 -11.667664527893066 0.266934633255005 0.000000000000000
0.356164574623108 -12.208826065063477 0.584544837474823 0.000000000000000
0.357609599828720 -11.922774314880371 0.433215677738190 0.000000000000000
0.358145028352737 -3.396684885025024 0.915184199810028 0.000000000000000
0.358315885066986 -13.467870712280273 0.722577214241028 0.000000000000000
0.359794586896896 -3.787883043289185 0.152821868658066 0.000000000000000
0.359986215829849 -8.870210647583008 0.339487940073013 0.000000000000000
0.362050443887711 -11.676372528076172 0.649033904075623 0.000000000000000
0.366393476724625 -11.216101646423340 0.364431947469711 0.000000000000000
0.369492232799530 -12.913093566894531 0.593398272991180 0.000000000000000
0.369767606258392 -7.319543361663818 0.832428693771362 0.000000000000000
0.369972795248032 -11.013478279113770 0.082703404128551 0.000000000000000
0.372179776430130 -12.365345954895020 1.646241664886475 0.000000000000000
0.372357457876205 -12.414470672607422 0.833648562431335 0.000000000000000
0.373501330614090 -9.203227996826172 1.225711345672607 0.000000000000000
0.377603948116302 -10.944599151611328 0.608427643775940 0.000000000000000
0.377758234739304 -9.525602340698242 0.456239461898804 0.000000000000000
0.377898991107941 -11.249427795410156 0.430435836315155 0.000000000000000
0.380647361278534 -5.490333080291748 0.305767059326172 0.000000000000000
0.382492363452911 -12.707971572875977 0.877882063388824 0.000000000000000
0.383790820837021 -11.424818038940430 0.965937733650208 0.000000000000000
0.385186582803726 -13.203660011291504 1.407001137733459 0.000000000000000
0.387578725814819 -3.556734561920166 0.958665788173676 0.000000000000000
0.389200419187546 -11.361260414123535 0.041665807366371 0.000000000000000
0.391451388597488 -8.901522636413574 0.323605149984360 0.000000000000000
0.392982155084610 -11.735003471374512 0.788108587265015 0.000000000000000
0.398710280656815 -11.372011184692383 0.150945603847504 0.000000000000000
0.400151550769806 -6.616323471069336 0.317225992679596 0.000000000000000
0.400184869766235 -12.133680343627930 0.932012081146240 0.000000000000000
0.400962412357330 -11.935987472534180 1.589256405830383 0.000000000000000
0.401860445737839 -9.116477012634277 0.348964810371399 0.000000000000000
0.404127866029739 -12.371232986450195 0.592384636402130 0.000000000000000
0.407584190368652 -7.070951461791992 0.434436619281769 0.000000000000000
0.411976665258408 -12.263863563537598 0.847296655178070 0.000000000000000
0.413259238004684 -3.584844589233398 0.534800410270691 1.000000000000000
0.413400113582611 -3.656164407730103 0.062940485775471 0.000000000000000
0.413713634014130 -7.666254520416260 0.589396595954895 0.000000000000000
0.414822757244110 -7.352871894836426 0.225007787346840 0.000000000000000
0.416786700487137 -7.482900619506836 0.618793725967407 0.000000000000000
0.418423324823380 -11.570940017700195 1.233297348022461 0.000000000000000
0.418725490570068 -6.988199710845947 0.213891759514809 0.000000000000000
0.423630088567734 -11.714926719665527 0.561025381088257 0.000000000000000
0.423783004283905 -14.261963844299316 1.620617747306824 0.000000000000000
0.426442533731461 -11.792699813842773 0.746554255485535 0.000000000000000
0.427820205688477 -3.686833143234253 0.056362193077803 0.000000000000000
0.432415336370468 -11.692293167114258 0.424940437078476 0.000000000000000
0.432966828346252 -9.100012779235840 0.629066109657288 0.000000000000000
0.433472961187363 -7.797175884246826 0.208583250641823 0.000000000000000
0.433918207883835 -10.055122375488281 0.481671065092087 0.000000000000000
0.436589032411575 -3.899651288986206 0.816196262836456 0.000000000000000
0.438783168792725 -13.061848640441895 0.700940608978271 0.000000000000000
0.441742122173309 -11.910682678222656 0.639244139194489 0.000000000000000
0.444673061370850 -11.692182540893555 1.432511687278748 0.000000000000000
0.444914817810059 -3.954665899276733 1.066334605216980 0.000000000000000
0.445020020008087 -12.859537124633789 1.166481614112854 0.000000000000000
0.445485264062881 -10.106135368347168 0.854794323444366 0.000000000000000
0.448501676321030 -4.268638610839844 0.892765522003174 0.000000000000000
0.457961469888687 -9.163725852966309 0.297959148883820 0.000000000000000
0.458118766546249 -11.881918907165527 0.889895796775818 0.000000000000000
0.460043191909790 -11.335656166076660 0.783370614051819 0.000000000000000
0.460759103298187 -14.104838371276855 1.110667109489441 0.000000000000000
0.461670309305191 -11.098441123962402 0.296694457530975 1.000000000000000
0.462823629379272 -7.360459327697754 0.438155531883240 0.000000000000000
0.462961047887802 -7.299587726593018 0.448640316724777 0.000000000000000
0.462975978851318 -4.263153076171875 0.891950905323029 0.000000000000000
0.465356022119522 -12.868801116943359 0.418181449174881 0.000000000000000
0.466918647289276 -9.587973594665527 0.792582631111145 0.000000000000000
0.467208176851273 -12.597323417663574 0.870442390441895 0.000000000000000
0.470094084739685 -12.371978759765625 0.687864959239960 0.000000000000000
0.473169416189194 -9.944983482360840 1.324908018112183 0.000000000000000
0.473634779453278 -14.262466430664062 0.710418999195099 0.000000000000000
0.476669937372208 -14.058062553405762 0.917012572288513 0.000000000000000
0.476835548877716 -6.329880237579346 0.230545073747635 0.000000000000000
0.477550208568573 -9.024782180786133 0.693803966045380 0.000000000000000
0.479240089654922 -4.159752845764160 0.715742945671082 0.000000000000000
0.483459562063217 -14.558318138122559 1.654474616050720 0.000000000000000
0.486574918031693 -5.666350364685059 0.381731718778610 0.000000000000000
0.486817628145218 -7.530098438262939 0.462843984365463 0.000000000000000
0.491546779870987 -11.688934326171875 1.112086892127991 0.000000000000000
0.491584628820419 -11.295308113098145 0.562845945358276 0.000000000000000
0.491902470588684 -11.302610397338867 0.389138787984848 0.000000000000000
0.494651675224304 -9.684287071228027 0.669571042060852 0.000000000000000
0.497767716646194 -8.736336708068848 0.553601801395416 0.000000000000000
0.504607379436493 -7.356436252593994 0.623077034950256 0.000000000000000
0.504799127578735 -11.194127082824707 0.644142985343933 0.000000000000000
0.505572319030762 -7.835062503814697 0.270059555768967 0.000000000000000
0.512705862522125 -8.806362152099609 0.575084507465363 0.000000000000000
0.512882471084595 -13.176841735839844 3.533397674560547 0.000000000000000
0.512899398803711 -11.373752593994141 1.032137513160706 0.000000000000000
0.513033032417297 -6.507087230682373 0.337511003017426 0.000000000000000
0.518771588802338 -4.233603477478027 0.302745461463928 0.000000000000000
0.520203292369843 -11.034983634948730 0.677613437175751 0.000000000000000
0.521232783794403 -7.359828948974609 0.785904049873352 0.000000000000000
0.521647334098816 -11.540905952453613 0.953863978385925 0.000000000000000
0.524846196174622 -3.837445497512817 0.230108737945557 0.000000000000000
0.526771605014801 -7.644382476806641 0.381462395191193 0.000000000000000
0.528179466724396 -12.729398727416992 0.707835197448730 0.000000000000000
0.528449594974518 -7.850503921508789 0.497786998748779 0.000000000000000
0.529779613018036 -13.087808609008789 0.879188418388367 0.000000000000000
0.531034231185913 -12.216483116149902 0.938748061656952 0.000000000000000
0.531326830387115 -11.192008972167969 0.406938195228577 0.000000000000000
0.533980548381805 -11.356730461120605 0.391063839197159 0.000000000000000
0.534007668495178 -11.446727752685547 1.220587253570557 0.000000000000000
0.534054040908813 -12.838527679443359 2.196427583694458 0.000000000000000
0.540209472179413 -5.340508937835693 0.050591457635164 1.000000000000000
0.544092416763306 -12.826475143432617 0.392236709594727 0.000000000000000
0.544245719909668 -12.346582412719727 0.853358626365662 0.000000000000000
0.545619726181030 -12.407279014587402 1.520494341850281 0.000000000000000
0.545666992664337 -4.276174545288086 0.281036764383316 0.000000000000000
0.554584324359894 -9.005456924438477 0.623004198074341 0.000000000000000
0.556041300296783 -7.851326465606689 0.376693934202194 0.000000000000000
0.558546483516693 -11.176413536071777 0.191421180963516 1.000000000000000
0.558800399303436 -12.267923355102539 1.167350530624390 0.000000000000000
0.560554623603821 -10.974534034729004 0.928553164005280 0.000000000000000
0.561315119266510 -12.764188766479492 1.054911613464355 0.000000000000000
0.561684668064117 -12.651855468750000 0.630466997623444 0.000000000000000
0.562611639499664 -7.724053382873535 0.549699664115906 0.000000000000000
0.568290412425995 -8.731130599975586 0.334596604108810 0.000000000000000
0.568858087062836 -7.366072177886963 0.643768191337585 1.000000000000000
0.576450109481812 -7.680874824523926 0.874862670898438 0.000000000000000
0.576554477214813 -4.395962238311768 0.357498645782471 0.000000000000000
0.578363895416260 -8.592017173767090 0.279653161764145 0.000000000000000
0.589158117771149 -11.182061195373535 0.975722014904022 0.000000000000000
0.593568623065948 -12.723446846008301 0.413637399673462 0.000000000000000
0.594348907470703 -14.324116706848145 0.575810968875885 0.000000000000000
0.598257362842560 -10.774828910827637 1.321196794509888 0.000000000000000
0.599150359630585 -12.592826843261719 1.065293312072754 0.000000000000000
0.600684583187103 -12.542074203491211 0.625097095966339 0.000000000000000
0.600776851177216 -8.830677032470703 1.005324602127075 0.000000000000000
0.603372931480408 -10.738307952880859 0.937179267406464 0.000000000000000
0.606554508209229 -3.749958038330078 0.790130019187927 0.000000000000000
0.617577731609344 -6.574930191040039 0.978708148002625 0.000000000000000
0.619016170501709 -3.739982843399048 0.788500905036926 0.000000000000000
0.620000958442688 -12.406106948852539 0.977600455284119 0.000000000000000
0.625488340854645 -6.597304821014404 0.577446877956390 0.000000000000000
0.627749204635620 -11.501832962036133 0.973347306251526 0.000000000000000
0.629166841506958 -3.303846597671509 0.574885785579681 1.000000000000000
0.633348643779755 -7.664255142211914 0.294090390205383 0.000000000000000
0.635437548160553 -3.274535894393921 0.570168077945709 1.000000000000000
0.638922393321991 -4.556554794311523 0.417116463184357 1.000000000000000
0.639860987663269 -12.803503036499023 1.365481734275818 0.000000000000000
0.640021920204163 -11.127017974853516 0.383363574743271 0.000000000000000
0.640095412731171 -7.745898723602295 0.656756818294525 0.000000000000000
0.640899419784546 -12.686593055725098 1.024272203445435 0.000000000000000
0.645191133022308 -11.605495452880859 1.986826896667480 0.000000000000000
0.645534813404083 -12.638276100158691 0.483934581279755 0.000000000000000
0.646456360816956 -5.977939128875732 1.027785301208496 0.000000000000000
0.649043917655945 -5.452755928039551 0.521976768970490 0.000000000000000
0.654290616512299 -9.538598060607910 0.365625888109207 0.000000000000000
0.657448589801788 -12.143361091613770 0.745938003063202 0.000000000000000
0.658637762069702 -12.316628456115723 1.313794255256653 0.000000000000000
0.663917124271393 -9.537510871887207 0.255362302064896 0.000000000000000
0.672026216983795 -12.242385864257812 0.610379576683044 0.000000000000000
0.673078775405884 -11.588829040527344 0.801556468009949 0.000000000000000
0.676248013973236 -13.684908866882324 0.418621957302094 0.000000000000000
0.676433265209198 -3.916945934295654 0.826785624027252 0.000000000000000
0.681070506572723 -12.502855300903320 1.033846259117126 0.000000000000000
0.681263148784637 -3.864423751831055 0.816196262836456 0.000000000000000
0.685075640678406 -5.295052051544189 0.306920558214188 0.000000000000000
0.686171591281891 -8.672183036804199 0.600685119628906 0.000000000000000
0.687206804752350 -12.591235160827637 0.870717883110046 0.000000000000000
0.688098371028900 -5.794653415679932 0.997457146644592 0.000000000000000
0.688393592834473 -8.700265884399414 0.468079239130020 0.000000000000000
0.689330458641052 -11.643923759460449 0.963079988956451 0.000000000000000
0.693021714687347 -7.728587627410889 1.032594561576843 0.000000000000000
0.694100975990295 -9.248506546020508 0.319011300802231 0.000000000000000
0.697151660919189 -9.668967247009277 0.519921422004700 0.000000000000000
0.697615861892700 -9.133004188537598 1.121413111686707 0.000000000000000
0.699963986873627 -5.983738422393799 0.299919307231903 0.000000000000000
0.705195307731628 -5.124103069305420 0.450707197189331 1.000000000000000
0.711426615715027 -11.572065353393555 0.778196990489960 0.000000000000000
0.716398239135742 -12.698397636413574 0.584221065044403 0.000000000000000
0.718481659889221 -11.666855812072754 1.555487394332886 0.000000000000000
0.720612704753876 -9.403822898864746 0.107000358402729 0.000000000000000
0.724902749061584 -11.155319213867188 0.750337243080139 0.000000000000000
0.729275822639465 -5.336312294006348 0.488261014223099 0.000000000000000
0.732574105262756 -5.357658386230469 0.471193879842758 0.000000000000000
0.741058170795441 -9.800840377807617 0.375867068767548 0.000000000000000
0.745235860347748 -6.542878627777100 0.442005157470703 0.000000000000000
0.745408475399017 -12.857432365417480 0.864454984664917 0.000000000000000
0.747739434242249 -6.344176292419434 0.318017899990082 0.000000000000000
0.747805058956146 -6.367674350738525 0.331520885229111 0.000000000000000
0.767242312431335 -9.731367111206055 0.354528397321701 0.000000000000000
0.769010066986084 -8.700619697570801 0.552591621875763 0.000000000000000
0.771183371543884 -10.237278938293457 0.530846536159515 0.000000000000000
0.774640619754791 -3.717070102691650 0.649021148681641 0.000000000000000
0.774718940258026 -3.466460943222046 0.738812327384949 0.000000000000000
0.776664733886719 -3.819475889205933 0.518671631813049 1.000000000000000
0.776908040046692 -3.534166336059570 0.752659976482391 0.000000000000000
0.777948319911957 -12.448336601257324 0.885296821594238 0.000000000000000
0.779677748680115 -13.448536872863770 0.489254981279373 0.000000000000000
0.781569421291351 -5.535915851593018 0.487166553735733 1.000000000000000
0.788750112056732 -12.621181488037109 0.507907986640930 0.000000000000000
0.794584870338440 -5.811172485351562 0.416310399770737 0.000000000000000
0.800105988979340 -11.682285308837891 0.785965561866760 0.000000000000000
0.802115976810455 -12.430722236633301 0.620124936103821 0.000000000000000
0.804300069808960 -6.368477344512939 0.610171556472778 0.000000000000000
0.804549455642700 -9.405875205993652 0.724728167057037 0.000000000000000
0.808847844600677 -9.469749450683594 0.473148614168167 0.000000000000000
0.812775492668152 -6.227387428283691 0.547237694263458 0.000000000000000
0.831096947193146 -14.309530258178711 1.907424330711365 0.000000000000000
0.836977064609528 -12.859192848205566 1.714835166931152 0.000000000000000
0.841823697090149 -13.693103790283203 0.498256087303162 0.000000000000000
0.842952847480774 -13.688045501708984 0.524440824985504 0.000000000000000
0.851361632347107 -12.430665016174316 0.452524542808533 0.000000000000000
0.854322731494904 -3.711707592010498 0.651042997837067 0.000000000000000
0.859065055847168 -12.523909568786621 1.670513153076172 0.000000000000000
0.861637294292450 -12.535750389099121 0.819170176982880 0.000000000000000
0.863946974277496 -11.683749198913574 0.538151502609253 0.000000000000000
0.864398121833801 -11.432068824768066 0.791636884212494 0.000000000000000
0.864527761936188 -7.343884468078613 0.282779216766357 0.000000000000000
0.865941822528839 -3.882912874221802 0.680023193359375 1.000000000000000
0.872985959053040 -8.778741836547852 0.677270293235779 0.000000000000000
0.889120161533356 -8.583320617675781 0.729168534278870 0.000000000000000
0.890414655208588 -8.689034461975098 0.552591621875763 0.000000000000000
0.893565952777863 -6.961874961853027 0.593101918697357 0.000000000000000
0.894508481025696 -5.407971382141113 0.399647116661072 0.000000000000000
0.894569993019104 -13.447079658508301 1.997291803359985 0.000000000000000
0.896676957607269 -14.560429573059082 1.232682108879089 0.000000000000000
0.903531491756439 -10.145875930786133 0.781983852386475 0.000000000000000
0.913041114807129 -11.539474487304688 0.442664116621017 0.000000000000000
0.921258687973022 -9.525800704956055 0.513280451297760 0.000000000000000
0.930194675922394 -7.052211284637451 0.946588933467865 0.000000000000000
0.933421492576599 -6.496775627136230 0.465871185064316 1.000000000000000
0.939455032348633 -8.498596191406250 0.310539007186890 0.000000000000000
0.942407906055450 -13.738925933837891 0.950901150703430 0.000000000000000
0.944937527179718 -11.134082794189453 0.362874001264572 0.000000000000000
0.948505580425262 -9.462690353393555 0.803600966930389 0.000000000000000
0.952229976654053 -5.593105792999268 0.457482546567917 0.000000000000000
0.956498146057129 -10.263994216918945 0.394209533929825 0.000000000000000
0.957524001598358 -10.578694343566895 1.815641760826111 0.000000000000000
0.968355834484100 -13.967247962951660 0.993764042854309 0.000000000000000
0.969909012317657 -11.294960021972656 0.411729127168655 0.000000000000000
0.971116244792938 -10.307899475097656 0.938602328300476 0.000000000000000
0.972470998764038 -5.614815235137939 0.496541798114777 0.000000000000000
0.974841475486755 -10.176233291625977 0.824304401874542 1.000000000000000
0.974885165691376 -11.983233451843262 0.946216762065887 0.000000000000000
0.978679716587067 -8.655570983886719 0.927832722663879 0.000000000000000
0.978913545608521 -4.055011749267578 0.713047146797180 0.000000000000000
0.981271386146545 -14.661505699157715 0.223140850663185 0.000000000000000
0.982087314128876 -12.653659820556641 0.558570981025696 0.000000000000000
0.987139284610748 -7.034551143646240 0.422024190425873 0.000000000000000
0.987588942050934 -11.765806198120117 0.701475858688354 0.000000000000000
0.987811923027039 -4.557642936706543 0.070817150175571 1.000000000000000
0.992641925811768 -3.682982444763184 0.322316050529480 0.000000000000000
0.996673941612244 -13.823115348815918 0.956963062286377 0.000000000000000
0.999422490596771 -8.510235786437988 0.575142443180084 0.000000000000000
1.000305175781250 -6.783881664276123 1.426306962966919 0.000000000000000
1.008461475372314 -9.423947334289551 0.344220638275146 0.000000000000000
1.020195603370667 -3.225437402725220 0.578255593776703 0.000000000000000
1.020733833312988 -3.255373954772949 0.914148867130280 0.000000000000000
1.023033618927002 -3.195571184158325 0.573537886142731 0.000000000000000
1.023828148841858 -8.521556854248047 0.542994439601898 0.000000000000000
1.027790665626526 -4.193260192871094 0.737983524799347 0.000000000000000
1.037499547004700 -9.086275100708008 0.349729090929031 0.000000000000000
1.040089845657349 -4.435141563415527 0.433024972677231 0.000000000000000
1.044948935508728 -3.292300224304199 0.925536930561066 0.000000000000000
1.047534942626953 -4.273814201354980 0.320822954177856 0.000000000000000
1.056365013122559 -14.502756118774414 2.155034542083740 0.000000000000000
1.059048056602478 -4.751151561737061 0.345509320497513 0.000000000000000
1.060924887657166 -5.263497352600098 0.795750141143799 0.000000000000000
1.063319683074951 -9.032557487487793 0.487787842750549 0.000000000000000
1.071848750114441 -11.953270912170410 1.014099955558777 0.000000000000000
1.073751091957092 -11.683305740356445 0.742260813713074 0.000000000000000
1.081137299537659 -4.224216938018799 0.646217107772827 0.000000000000000
1.084262490272522 -8.871575355529785 0.737944424152374 0.000000000000000
1.089368820190430 -11.853239059448242 0.936801671981812 0.000000000000000
1.090246200561523 -12.654878616333008 0.877055406570435 0.000000000000000
1.093113660812378 -4.033899307250977 0.714395046234131 0.000000000000000
1.094104051589966 -11.834504127502441 0.408801943063736 0.000000000000000
1.095377326011658 -11.546998977661133 3.107899188995361 0.000000000000000
1.097718358039856 -5.465734481811523 0.485777616500854 0.000000000000000
1.097868084907532 -11.020636558532715 0.679327666759491 0.000000000000000
1.101211786270142 -4.750200271606445 0.393184214830399 0.000000000000000
1.109879732131958 -4.245097160339355 0.498373806476593 0.000000000000000
1.110797643661499 -4.089541912078857 0.628038644790649 1.000000000000000
1.111853599548340 -11.931083679199219 0.642671704292297 0.000000000000000
1.115625143051147 -11.760442733764648 0.906905293464661 0.000000000000000
1.115963697433472 -8.238686561584473 0.317935556173325 0.000000000000000
1.117378711700439 -8.737019538879395 0.591215372085571 0.000000000000000
1.118585705757141 -8.857003211975098 0.392899155616760 0.000000000000000
1.120216488838196 -8.975753784179688 0.345907747745514 0.000000000000000
1.124721050262451 -8.852129936218262 0.289779871702194 0.000000000000000
1.129613161087036 -11.791873931884766 0.225383818149567 0.000000000000000
1.132577896118164 -13.029214859008789 1.601185441017151 0.000000000000000
1.133018493652344 -11.715394020080566 0.994565606117249 0.000000000000000
1.133227229118347 -11.717553138732910 1.566567778587341 0.000000000000000
1.134276866912842 -12.341876983642578 1.320149302482605 0.000000000000000
1.135758399963379 -4.082680225372314 0.628038644790649 1.000000000000000
1.140075445175171 -9.496096611022949 0.384141534566879 0.000000000000000
1.140988349914551 -9.992615699768066 0.539415776729584 0.000000000000000
1.147124290466309 -12.021082878112793 1.286255836486816 0.000000000000000
1.150550961494446 -11.227551460266113 0.193063095211983 0.000000000000000
1.151165127754211 -12.063426971435547 0.207293137907982 0.000000000000000
1.151703119277954 -3.644749164581299 0.271309792995453 0.000000000000000
1.151727199554443 -4.460141658782959 0.353637963533401 1.000000000000000
1.152223825454712 -11.386907577514648 0.944976985454559 0.000000000000000
1.157234072685242 -4.918061256408691 0.397630751132965 0.000000000000000
1.157289266586304 -4.922919273376465 0.388236284255981 0.000000000000000
1.158086538314819 -4.333531379699707 0.406643390655518 0.000000000000000
1.159468770027161 -3.801465749740601 0.679349184036255 0.000000000000000
1.161141991615295 -11.690939903259277 1.334413886070251 0.000000000000000
1.162497878074646 -9.586716651916504 0.369294375181198 0.000000000000000
1.166655540466309 -11.541615486145020 1.051639080047607 0.000000000000000
1.168739914894104 -9.760761260986328 0.432646304368973 0.000000000000000
1.169007301330566 -11.366575241088867 1.297848463058472 0.000000000000000
1.179438352584839 -11.056372642517090 0.682021439075470 0.000000000000000
1.181277513504028 -4.163173675537109 0.460950702428818 0.000000000000000
1.194151759147644 -11.415244102478027 0.836815655231476 0.000000000000000
1.195543169975281 -4.883566379547119 0.047387082129717 0.000000000000000
1.196509122848511 -11.562594413757324 0.422182053327560 0.000000000000000
1.197874426841736 -7.203774929046631 0.777854323387146 0.000000000000000
1.200575828552246 -3.986050367355347 0.377391099929810 0.000000000000000
1.206506133079529 -14.125414848327637 1.610234856605530 0.000000000000000
1.208147883415222 -11.289993286132812 0.762124001979828 0.000000000000000
1.208744525909424 -3.533673763275146 0.315580070018768 1.000000000000000
1.211838364601135 -4.566608428955078 0.380967527627945 0.000000000000000
1.211887240409851 -5.088545799255371 0.775225996971130 0.000000000000000
1.213867664337158 -10.013280868530273 0.657573997974396 0.000000000000000
1.216751098632812 -11.539794921875000 0.533012270927429 0.000000000000000
1.218463182449341 -13.472009658813477 1.656113743782043 0.000000000000000
1.221246838569641 -6.520635128021240 1.379876613616943 0.000000000000000
1.227508306503296 -12.246139526367188 1.637799382209778 1.000000000000000
1.230338335037231 -11.566054344177246 0.758278787136078 0.000000000000000
1.230417609214783 -10.608239173889160 1.582704186439514 0.000000000000000
1.233279705047607 -11.696554183959961 0.902924954891205 0.000000000000000
1.233482241630554 -11.147768974304199 0.428907305002213 0.000000000000000
1.234351038932800 -11.928284645080566 0.620078325271606 0.000000000000000
1.240778446197510 -11.473780632019043 1.046221971511841 0.000000000000000
1.250714898109436 -6.974923610687256 0.502970933914185 0.000000000000000
1.257907152175903 -9.800498962402344 1.314882755279541 0.000000000000000
1.260149478912354 -9.807126045227051 0.492241591215134 1.000000000000000
1.263329625129700 -4.936078548431396 0.361651957035065 0.000000000000000
1.264394283294678 -7.015964508056641 0.621198058128357 0.000000000000000
1.265587091445923 -4.201895236968994 0.319950371980667 0.000000000000000
1.269978880882263 -9.894551277160645 0.074868343770504 0.000000000000000
1.270535707473755 -9.901626586914062 0.650808274745941 0.000000000000000
1.270944714546204 -9.382844924926758 1.260007977485657 0.000000000000000
1.271205067634583 -11.488693237304688 0.976715326309204 0.000000000000000
1.272504568099976 -14.308903694152832 1.158334136009216 0.000000000000000
1.274726152420044 -11.787702560424805 0.681561112403870 0.000000000000000
1.280985116958618 -4.340944290161133 0.356204330921173 0.000000000000000
1.281631469726562 -3.857670783996582 0.845520675182343 0.000000000000000
1.282438635826111 -10.049960136413574 0.504373610019684 1.000000000000000
1.283747553825378 -11.353630065917969 0.371053248643875 0.000000000000000
1.286430954933167 -7.082984924316406 0.497080743312836 1.000000000000000
1.292521476745605 -4.495412826538086 0.368130117654800 1.000000000000000
1.297977685928345 -10.843311309814453 1.618474960327148 0.000000000000000
1.298190355300903 -9.499217033386230 0.403512150049210 0.000000000000000
1.299811124801636 -4.370714664459229 0.332457512617111 0.000000000000000
1.302437663078308 -11.298081398010254 0.991000175476074 0.000000000000000
1.306323885917664 -11.731160163879395 0.088587202131748 0.000000000000000
1.310277462005615 -5.832192420959473 0.678943991661072 0.000000000000000
1.311308979988098 -14.183925628662109 1.617909073829651 0.000000000000000
1.311879634857178 -9.437261581420898 1.267922639846802 0.000000000000000
1.314536929130554 -11.410040855407715 0.837397396564484 0.000000000000000
1.320304155349731 -11.822931289672852 0.867356359958649 0.000000000000000
1.320919990539551 -9.923610687255859 0.421341359615326 0.000000000000000
1.322921991348267 -3.835300922393799 0.432141304016113 0.000000000000000
1.324413657188416 -11.599028587341309 0.986482501029968 0.000000000000000
1.324510335922241 -3.796859979629517 0.428328275680542 0.000000000000000
1.324700355529785 -6.956193447113037 0.516283571720123 0.000000000000000
1.326166152954102 -8.380657196044922 1.450356721878052 0.000000000000000
1.327327847480774 -9.580272674560547 1.184118986129761 0.000000000000000
1.348899126052856 -11.890789985656738 1.359242320060730 0.000000000000000
1.353630781173706 -10.262464523315430 0.714760184288025 0.000000000000000
1.361515879631042 -9.751893043518066 1.205506920814514 0.000000000000000
1.361769080162048 -7.397150039672852 0.801156044006348 0.000000000000000
1.362389445304871 -3.070643186569214 0.497856944799423 0.000000000000000
1.364359140396118 -5.870409011840820 0.802015185356140 0.000000000000000
1.367100954055786 -5.256653785705566 0.516299009323120 0.000000000000000
1.367744684219360 -14.183810234069824 1.744582533836365 0.000000000000000
1.371343374252319 -5.204297065734863 0.919952034950256 0.000000000000000
1.382325887680054 -5.894501209259033 1.259320735931396 0.000000000000000
1.384013533592224 -11.317596435546875 0.479875028133392 0.000000000000000
1.384197831153870 -5.637143611907959 0.860254585742950 0.000000000000000
1.387206792831421 -3.810077905654907 0.100512303411961 0.000000000000000
1.390783786773682 -14.055460929870605 1.504444837570190 0.000000000000000
1.398936271667480 -12.251687049865723 1.640965223312378 0.000000000000000
1.411179304122925 -4.854464054107666 0.076769195497036 1.000000000000000
1.411335945129395 -3.861250877380371 0.086115226149559 1.000000000000000
1.417468905448914 -5.021938800811768 0.380450099706650 0.000000000000000
1.420517086982727 -4.646591186523438 0.223189711570740 1.000000000000000
1.420985341072083 -7.443418979644775 0.720320403575897 0.000000000000000
1.426827669143677 -11.552226066589355 0.916088461875916 0.000000000000000
1.434653401374817 -6.022976398468018 1.287830591201782 0.000000000000000
1.436602234840393 -8.149039268493652 0.786561071872711 0.000000000000000
1.443878173828125 -5.048033714294434 0.475982248783112 0.000000000000000
1.445803403854370 -6.864392280578613 0.592765152454376 0.000000000000000
1.461045265197754 -7.233596801757812 1.977377533912659 0.000000000000000
1.466221213340759 -5.404790401458740 1.164830923080444 0.000000000000000
1.466597914695740 -14.311668395996094 1.532406806945801 0.000000000000000
1.483542323112488 -5.390374183654785 0.531439721584320 0.000000000000000
1.484511733055115 -6.965542793273926 0.560511827468872 0.000000000000000
1.490658998489380 -11.405728340148926 0.461997210979462 0.000000000000000
1.491237163543701 -3.358519077301025 0.628128468990326 0.000000000000000
1.492980480194092 -5.225221157073975 0.385724365711212 0.000000000000000
1.497650504112244 -11.553368568420410 0.647258698940277 0.000000000000000
1.511420965194702 -14.605779647827148 0.082010507583618 0.000000000000000
1.512415170669556 -11.840676307678223 0.916396856307983 0.000000000000000
1.517603397369385 -3.450323343276978 0.644303441047668 0.000000000000000
1.525552630424500 -8.235959053039551 0.578366160392761 0.000000000000000
1.525613188743591 -8.340283393859863 0.601809263229370 0.000000000000000
1.526548862457275 -11.688284873962402 0.927700400352478 0.000000000000000
1.530624389648438 -7.468532085418701 0.555841088294983 0.000000000000000
1.533398747444153 -11.359178543090820 0.769356846809387 0.000000000000000
1.543974161148071 -6.306840896606445 0.962288856506348 0.000000000000000
1.544036626815796 -7.086340427398682 0.472818315029144 0.000000000000000
1.547206163406372 -6.764136791229248 0.923372745513916 0.000000000000000
1.552303791046143 -13.440820693969727 1.012588620185852 0.000000000000000
1.556352496147156 -11.799386978149414 1.005679965019226 0.000000000000000
1.557454466819763 -11.341715812683105 3.067523479461670 0.000000000000000
1.569126486778259 -4.965752601623535 0.049083516001701 0.000000000000000
1.570480227470398 -7.587561607360840 0.654736101627350 0.000000000000000
1.574098587036133 -7.553225517272949 0.087533377110958 1.000000000000000
1.575337290763855 -6.844242095947266 0.636689484119415 0.000000000000000
1.585715413093567 -11.771527290344238 0.225992545485497 0.000000000000000
1.588501930236816 -10.788575172424316 1.616129159927368 0.000000000000000
1.589331150054932 -8.507290840148926 1.479336857795715 1.000000000000000
1.597184538841248 -6.830002784729004 1.198970437049866 0.000000000000000
1.597610950469971 -13.603900909423828 1.130944252014160 0.000000000000000
1.602151870727539 -13.398252487182617 0.412269979715347 0.000000000000000
1.602319002151489 -8.725199699401855 1.314717650413513 0.000000000000000
1.602524042129517 -4.950871467590332 0.049045819789171 0.000000000000000
1.602882623672485 -4.324800968170166 0.185248360037804 1.000000000000000
1.608646988868713 -5.335498332977295 1.159128904342651 0.000000000000000
1.616548299789429 -9.207357406616211 0.771846413612366 0.000000000000000
1.617504477500916 -13.740179061889648 0.955309808254242 0.000000000000000
1.622758150100708 -7.523351669311523 1.315565228462219 0.000000000000000
1.623543381690979 -12.101823806762695 0.960967063903809 0.000000000000000
1.625962138175964 -8.516323089599609 2.323159933090210 0.000000000000000
1.626262784004211 -11.358494758605957 1.404804468154907 0.000000000000000
1.628895401954651 -6.230683326721191 0.506845831871033 1.000000000000000
1.630335092544556 -7.436226367950439 0.540353953838348 0.000000000000000
1.637824654579163 -5.870776176452637 0.456142514944077 0.000000000000000
1.639002680778503 -11.634117126464844 1.178919553756714 0.000000000000000
1.639309167861938 -13.550487518310547 0.916156113147736 0.000000000000000
1.643057703971863 -3.199928998947144 0.963842153549194 0.000000000000000
1.673384785652161 -10.391536712646484 1.288628578186035 0.000000000000000
1.680657982826233 -10.625658988952637 2.237615823745728 0.000000000000000
1.692451596260071 -4.860332012176514 0.236404895782471 0.000000000000000
1.695559978485107 -11.616959571838379 0.810649394989014 0.000000000000000
1.699492573738098 -13.865265846252441 1.327842235565186 0.000000000000000
1.699904441833496 -6.012137413024902 0.593895256519318 0.000000000000000
1.703389286994934 -11.018480300903320 2.319072484970093 0.000000000000000
1.711582899093628 -10.397384643554688 1.290086865425110 0.000000000000000
1.711668729782104 -6.626162052154541 0.910709321498871 0.000000000000000
1.715671062469482 -7.407199859619141 0.363882511854172 0.000000000000000
1.736318826675415 -7.309803485870361 0.681109607219696 0.000000000000000
1.741327762603760 6.750721931457520 0.065708577632904 0.000000000000000
1.742377281188965 -10.572931289672852 0.884743392467499 0.000000000000000
1.743470907211304 -9.308061599731445 2.537462234497070 0.000000000000000
1.743849992752075 -12.088027954101562 3.272508144378662 0.000000000000000
1.744022727012634 -7.350221157073975 0.623730897903442 0.000000000000000
1.751100063323975 -11.733685493469238 0.979537248611450 0.000000000000000
1.752532958984375 -6.883492946624756 0.490467697381973 0.000000000000000
1.754099369049072 -2.792158365249634 0.685865521430969 0.000000000000000
1.760915756225586 -2.824851036071777 0.692381978034973 0.000000000000000
1.762900948524475 -12.889559745788574 2.705991983413696 0.000000000000000
1.763837575912476 -6.844395160675049 0.752857923507690 0.000000000000000
1.772080183029175 -7.524574756622314 0.384843438863754 0.000000000000000
1.775888085365295 -9.667502403259277 2.633742809295654 0.000000000000000
1.776325583457947 -6.110568523406982 1.705099940299988 0.000000000000000
1.778714060783386 -13.362856864929199 1.222097039222717 0.000000000000000
1.780542135238647 -9.364112854003906 1.412647128105164 0.000000000000000
1.787707567214966 -13.419689178466797 2.815958499908447 0.000000000000000
1.788408160209656 -7.040840148925781 0.585757672786713 0.000000000000000
1.795397758483887 -8.615117073059082 0.370376735925674 0.000000000000000
1.795740485191345 -6.258783817291260 0.653357863426208 0.000000000000000
1.796856880187988 -7.416556358337402 0.115882620215416 0.000000000000000
1.800588369369507 -11.922727584838867 2.508052110671997 0.000000000000000
1.815309286117554 -8.819269180297852 0.708642601966858 0.000000000000000
1.818057894706726 -8.704072952270508 0.845231413841248 0.000000000000000
1.819600343704224 -7.077129840850830 0.733230471611023 0.000000000000000
1.819781184196472 -13.671380996704102 2.357503414154053 0.000000000000000
1.824618458747864 -7.444219589233398 0.694832980632782 0.000000000000000
1.825279474258423 -13.356072425842285 0.982829391956329 0.000000000000000
1.839626431465149 -2.974195003509521 0.727408409118652 0.000000000000000
1.841769099235535 6.939431667327881 0.067668907344341 0.000000000000000
1.849427819252014 -3.259687185287476 1.004217863082886 0.000000000000000
1.854806780815125 -7.445866107940674 0.729404807090759 0.000000000000000
1.855307936668396 -10.950634956359863 1.646035909652710 0.000000000000000
1.878578901290894 -6.655601501464844 0.626938641071320 0.000000000000000
1.879514217376709 -7.226938724517822 0.099056400358677 0.000000000000000
1.881255507469177 6.893722534179688 0.177135571837425 0.000000000000000
1.882132291793823 -10.496180534362793 0.929192900657654 0.000000000000000
1.882553339004517 -5.530281543731689 1.565337657928467 0.000000000000000
1.891504406929016 -7.251739978790283 0.752000570297241 0.000000000000000
1.899447441101074 -10.926116943359375 0.211002483963966 0.000000000000000
1.906895756721497 -13.418689727783203 0.909726977348328 0.000000000000000
1.907555580139160 -13.891226768493652 1.406955838203430 0.000000000000000
1.908871054649353 -8.349298477172852 0.574874579906464 0.000000000000000
1.911771297454834 -2.657768964767456 0.680978059768677 0.000000000000000
1.913753986358643 -5.837193012237549 1.050025939941406 0.000000000000000
1.914889097213745 -6.489089012145996 0.720659136772156 0.000000000000000
1.914933443069458 -7.104944705963135 0.508102476596832 0.000000000000000
1.917026519775391 -7.275184154510498 0.085355244576931 1.000000000000000
1.920687675476074 -2.689923048019409 0.687494635581970 0.000000000000000
1.922479987144470 -14.067316055297852 2.426921129226685 0.000000000000000
1.933205485343933 -14.138439178466797 0.792819857597351 0.000000000000000
1.936428070068359 -7.548450946807861 0.740760385990143 0.000000000000000
1.940125107765198 -9.224105834960938 0.197445139288902 0.000000000000000
1.941695332527161 -7.519888401031494 0.521298229694366 0.000000000000000
1.951255559921265 -2.402561426162720 0.529056668281555 0.000000000000000
1.951665401458740 7.054689407348633 0.068988353013992 0.000000000000000
1.952757358551025 -2.421634912490845 0.531752526760101 0.000000000000000
1.958951115608215 -9.546641349792480 1.444312810897827 0.000000000000000
1.963416457176208 -8.727985382080078 0.324911773204803 0.000000000000000
1.976916551589966 -2.870095491409302 0.933819174766541 0.000000000000000
1.978330492973328 -10.605925559997559 0.765784621238708 0.000000000000000
1.981135725975037 -3.305259704589844 0.801533997058868 0.000000000000000
1.988162279129028 -10.139363288879395 0.395126610994339 0.000000000000000
1.994686603546143 -3.301675796508789 0.802348613739014 0.000000000000000
2.000139713287354 -2.882222890853882 0.940030813217163 0.000000000000000
2.000662326812744 -4.336585044860840 0.707789540290833 0.000000000000000
2.008384227752686 -9.071220397949219 0.785077035427094 0.000000000000000
2.015069961547852 -9.404261589050293 0.812694489955902 0.000000000000000
2.023770809173584 -11.602855682373047 0.995239257812500 0.000000000000000
2.029071807861328 -6.241506099700928 0.658549547195435 0.000000000000000
2.034336328506470 -6.278936862945557 1.128204941749573 0.000000000000000
2.038454771041870 -8.856310844421387 0.662588119506836 0.000000000000000
2.038708686828613 -14.285388946533203 0.718374431133270 0.000000000000000
2.042739629745483 -7.266304016113281 0.492074549198151 0.000000000000000
2.046267509460449 -6.080711364746094 0.643773198127747 0.000000000000000
2.052413940429688 -14.844227790832520 0.746019482612610 0.000000000000000
2.052913427352905 -4.901399135589600 0.787540495395660 0.000000000000000
2.054580211639404 -14.332215309143066 1.195456862449646 0.000000000000000
2.059098720550537 -8.519101142883301 1.823001146316528 0.000000000000000
2.061647891998291 -9.311794281005859 0.658549308776855 0.000000000000000
2.076498031616211 -11.012726783752441 0.752212405204773 0.000000000000000
2.076637744903564 -9.994317054748535 1.249741315841675 1.000000000000000
2.079389333724976 -11.439871788024902 0.758018612861633 0.000000000000000
2.092827081680298 -2.632741451263428 0.574885785579681 0.000000000000000
2.094352006912231 -6.498969554901123 0.775549054145813 0.000000000000000
2.094643354415894 -6.192628383636475 0.438790589570999 0.000000000000000
2.097937822341919 -11.412807464599609 1.011139631271362 0.000000000000000
2.098796129226685 -7.112304687500000 0.354895412921906 0.000000000000000
2.099351406097412 -6.381832122802734 0.674124717712402 0.000000000000000
2.100274801254272 -11.338695526123047 0.440982729196548 0.000000000000000
2.105283260345459 -9.628243446350098 0.073967762291431 0.000000000000000
2.109907865524292 -11.616981506347656 0.633245825767517 0.000000000000000
2.111705064773560 -10.634692192077637 0.685940921306610 0.000000000000000
2.120341539382935 -10.759754180908203 0.905479550361633 0.000000000000000
2.121189355850220 -10.381455421447754 0.874869048595428 0.000000000000000
2.121582746505737 -3.741348028182983 0.637421071529388 0.000000000000000
2.123370885848999 -10.632226943969727 0.748652100563049 0.000000000000000
2.127686738967896 -7.015366077423096 0.364954859018326 1.000000000000000
2.129064321517944 -9.621071815490723 0.661400437355042 1.000000000000000
2.134465694427490 -11.302825927734375 1.530688047409058 0.000000000000000
2.135716915130615 -8.447713851928711 1.812411785125732 0.000000000000000
2.137826204299927 -11.107834815979004 0.955833792686462 0.000000000000000
2.140570402145386 -6.120040416717529 0.793787479400635 0.000000000000000
2.143835306167603 -11.502101898193359 0.966042339801788 0.000000000000000
2.156217575073242 -2.693133115768433 0.589712858200073 0.000000000000000
2.158717870712280 -8.424741744995117 0.634083449840546 0.000000000000000
2.168524265289307 -9.273209571838379 0.108044043183327 0.000000000000000
2.176428318023682 -6.694780826568604 1.886273384094238 0.000000000000000
2.177354812622070 -12.026543617248535 0.796791255474091 0.000000000000000
2.182776451110840 -13.636668205261230 1.837775588035583 0.000000000000000
2.187286376953125 -12.581841468811035 1.029737472534180 0.000000000000000
2.189508914947510 -14.301827430725098 1.925364017486572 0.000000000000000
2.192036867141724 -6.088949680328369 0.649364233016968 0.000000000000000
2.193692922592163 -10.984346389770508 1.490587353706360 0.000000000000000
2.197178840637207 -8.830780029296875 1.555494070053101 0.000000000000000
2.204094409942627 -6.758610248565674 0.573219478130341 0.000000000000000
2.204790353775024 -10.952299118041992 0.298403292894363 0.000000000000000
2.208421468734741 -10.420207977294922 1.578599452972412 0.000000000000000
2.209507465362549 -11.268194198608398 1.528049945831299 0.000000000000000
2.212758302688599 -10.761599540710449 0.166839390993118 0.000000000000000
2.213441133499146 -2.985949754714966 0.995935738086700 0.000000000000000
2.214229106903076 -11.201136589050293 0.480547815561295 0.000000000000000
2.214603662490845 -2.965821743011475 0.991794645786285 0.000000000000000
2.215234279632568 -7.354834079742432 0.323280662298203 0.000000000000000
2.217938661575317 -14.156992912292480 1.906896591186523 0.000000000000000
2.220531702041626 -8.208006858825684 0.702067553997040 0.000000000000000
2.226925134658813 -7.248634338378906 0.275405555963516 0.000000000000000
2.226955890655518 -10.951706886291504 0.427378773689270 0.000000000000000
2.229800939559937 -11.464920997619629 1.017737150192261 0.000000000000000
2.257037401199341 -3.305221796035767 0.832487583160400 0.000000000000000
2.264714002609253 -11.992541313171387 1.031276583671570 0.000000000000000
2.266251087188721 -8.442433357238770 0.216686278581619 1.000000000000000
2.268683433532715 -11.675720214843750 1.762730121612549 0.000000000000000
2.271109819412231 -10.383161544799805 1.301266908645630 0.000000000000000
2.279566287994385 7.433839797973633 0.088214039802551 0.000000000000000
2.280824661254883 -6.983143329620361 0.379854798316956 1.000000000000000
2.290976285934448 -9.041237831115723 2.499156713485718 0.000000000000000
2.292738199234009 -4.184997081756592 0.707203149795532 0.000000000000000
2.296103715896606 -5.580161094665527 0.894266009330750 0.000000000000000
2.304426670074463 -9.390431404113770 2.011166095733643 0.000000000000000
2.305206298828125 -2.759734869003296 0.614649295806885 1.000000000000000
2.308369159698486 -11.421485900878906 0.288848936557770 0.000000000000000
2.311735391616821 -3.461586713790894 0.616896927356720 0.000000000000000
2.312753677368164 -3.489424228668213 0.620415389537811 0.000000000000000
2.316937685012817 -11.458724975585938 0.559495687484741 0.000000000000000
2.317805528640747 -11.605808258056641 0.634745419025421 0.000000000000000
2.319651126861572 -9.653139114379883 0.036387939006090 0.000000000000000
2.320160150527954 -11.684485435485840 1.268885493278503 0.000000000000000
2.329859018325806 -11.683148384094238 0.799627482891083 0.000000000000000
2.331662416458130 -9.158163070678711 0.798548936843872 0.000000000000000
2.340744256973267 -13.625172615051270 1.692570686340332 0.000000000000000
2.341074943542480 7.540435314178467 0.089575365185738 0.000000000000000
2.344594478607178 -9.955574035644531 0.037487495690584 0.000000000000000
2.344636678695679 -9.345433235168457 1.282168984413147 0.000000000000000
2.352361440658569 -3.662491798400879 0.744049191474915 0.000000000000000
2.358748197555542 -3.255371570587158 0.595786392688751 0.000000000000000
2.369592428207397 -14.316643714904785 1.086025118827820 0.000000000000000
2.370281219482422 -10.362488746643066 0.898241281509399 0.000000000000000
2.370602607727051 -14.485912322998047 1.953329086303711 0.000000000000000
2.376386642456055 -7.397584438323975 2.081940650939941 0.000000000000000
2.383590936660767 -8.168176651000977 0.571124255657196 0.000000000000000
2.383681058883667 -11.604156494140625 2.464065313339233 0.000000000000000
2.388385057449341 -13.693292617797852 0.745499193668365 0.000000000000000
2.389623165130615 -13.199000358581543 0.255211800336838 0.000000000000000
2.392496347427368 -13.862607002258301 0.592064499855042 0.000000000000000
2.393112421035767 -10.856482505798340 1.184151887893677 0.000000000000000
2.394356727600098 -8.751095771789551 0.591478288173676 0.000000000000000
2.395585536956787 -11.638411521911621 0.568674027919769 0.000000000000000
2.396509647369385 -8.277952194213867 1.277187824249268 0.000000000000000
2.400635719299316 -13.687311172485352 1.701320290565491 0.000000000000000
2.404902458190918 -12.264682769775391 0.863002717494965 0.000000000000000
2.412346363067627 -7.261087417602539 0.101497001945972 0.000000000000000
2.413842439651489 -3.308263301849365 0.606928110122681 0.000000000000000
2.416719198226929 -8.922076225280762 0.087121360003948 0.000000000000000
2.425930023193359 -7.431363582611084 0.479496568441391 1.000000000000000
2.425953626632690 -4.079605102539062 0.987255275249481 0.000000000000000
2.426287651062012 -11.323400497436523 0.799627661705017 0.000000000000000
2.426495313644409 -3.504043102264404 0.728548169136047 1.000000000000000
2.427694559097290 -5.117551803588867 1.517714977264404 0.000000000000000
2.430068016052246 -8.289769172668457 0.713258504867554 0.000000000000000
2.432911157608032 -5.968810558319092 0.955251991748810 0.000000000000000
2.436049461364746 -14.269468307495117 1.772289633750916 0.000000000000000
2.440021991729736 -14.463115692138672 0.363588869571686 0.000000000000000
2.440135478973389 -3.413502931594849 1.124310016632080 0.000000000000000
2.440379858016968 -11.125411033630371 0.479370415210724 0.000000000000000
2.441716909408569 -12.686805725097656 0.096962608397007 0.000000000000000
2.444873571395874 -10.381378173828125 0.859990000724792 0.000000000000000
2.445208072662354 -10.197565078735352 0.886116504669189 0.000000000000000
2.447287559509277 -2.212923765182495 0.331071943044662 0.000000000000000
2.450558662414551 -7.735444068908691 1.687782883644104 0.000000000000000
2.456529140472412 -12.231494903564453 1.848931550979614 0.000000000000000
2.458005428314209 -13.533578872680664 1.162291288375854 0.000000000000000
2.466706991195679 -4.286963939666748 0.733004868030548 0.000000000000000
2.467840671539307 -3.426911830902100 1.131556868553162 0.000000000000000
2.470416307449341 -10.146368980407715 0.882411777973175 0.000000000000000
