# This PCD file was generated using the MATLAB® pcwrite function
# from Computer Vision Toolbox®.
# .PCD v.7 - Point Cloud Data file format
VERSION .7
FIELDS x y z intensity
SIZE 8 8 8 8
TYPE F F F F
COUNT 1 1 1 1
WIDTH 640
HEIGHT 1
VIEWPOINT 0 0 0 1 0 0 0
POINTS 640
DATA ascii
-6.553738594055176 -5.388669013977051 1.038777589797974 0.000000000000000
-6.549232482910156 -7.487981319427490 0.399552136659622 0.000000000000000
-6.539169788360596 -5.341965675354004 1.251385927200317 0.000000000000000
-6.537875175476074 -5.638165950775146 0.729505300521851 0.000000000000000
-6.533429622650146 -7.787893772125244 0.885788917541504 0.000000000000000
-6.533193588256836 -7.675936222076416 0.754366576671600 0.000000000000000
-6.529856204986572 -10.285044670104980 1.222450137138367 0.000000000000000
-6.529533386230469 -9.177090644836426 2.342694997787476 0.000000000000000
-6.527570247650146 -6.204836368560791 0.327089428901672 0.000000000000000
-6.520064353942871 -11.043296813964844 0.441115617752075 0.000000000000000
-6.517830371856689 -9.366761207580566 0.326720148324966 0.000000000000000
-6.516903400421143 -8.591619491577148 2.889456033706665 0.000000000000000
-6.515570163726807 -7.539313793182373 0.553620338439941 0.000000000000000
-6.514076232910156 -6.981092929840088 0.548875927925110 0.000000000000000
-6.511250019073486 -6.650927543640137 0.552972674369812 0.000000000000000
-6.505943775177002 -11.365077018737793 1.030638813972473 0.000000000000000
-6.501828193664551 -11.185627937316895 1.043240189552307 0.000000000000000
-6.498893260955811 -8.088485717773438 1.041139364242554 0.000000000000000
-6.498721122741699 -10.983927726745605 0.979776084423065 0.000000000000000
-6.496629238128662 5.099867343902588 1.717922091484070 1.000000000000000
-6.490038394927979 -6.366398334503174 2.436005115509033 0.000000000000000
-6.483024597167969 -5.793643951416016 0.483058691024780 0.000000000000000
-6.480622768402100 -7.874498367309570 0.723870396614075 0.000000000000000
-6.477343082427979 -11.166818618774414 0.692371666431427 0.000000000000000
-6.468706607818604 -7.485086917877197 0.245234161615372 0.000000000000000
-6.453225135803223 -6.108487606048584 1.848252654075623 0.000000000000000
-6.452657699584961 -9.353311538696289 3.044747352600098 0.000000000000000
-6.448894023895264 6.902538299560547 0.798212170600891 1.000000000000000
-6.446324348449707 -11.817999839782715 0.618360280990601 0.000000000000000
-6.446181774139404 -11.195782661437988 0.867133796215057 0.000000000000000
-6.438617706298828 -7.661290645599365 0.094321779906750 0.000000000000000
-6.438130855560303 -7.886057376861572 1.740158319473267 0.000000000000000
-6.433547019958496 -5.963370800018311 1.824630141258240 0.000000000000000
-6.431243896484375 -11.382015228271484 0.953161239624023 0.000000000000000
-6.427212238311768 -7.702145099639893 0.094547972083092 0.000000000000000
-6.426518440246582 -9.385342597961426 3.047853231430054 0.000000000000000
-6.421767711639404 -13.038691520690918 0.220711439847946 0.000000000000000
-6.421548366546631 -5.988612174987793 1.500903367996216 0.000000000000000
-6.419767856597900 -7.700324535369873 0.730941116809845 0.000000000000000
-6.418500900268555 -5.701014995574951 0.778256297111511 0.000000000000000
-6.413865089416504 -10.850008964538574 0.021998120471835 0.000000000000000
-6.408497333526611 -6.594146728515625 1.912603378295898 0.000000000000000
-6.406141281127930 -5.485687732696533 0.712665438652039 0.000000000000000
-6.400855064392090 -10.688274383544922 0.860247254371643 0.000000000000000
-6.398893356323242 -10.911450386047363 0.410781145095825 0.000000000000000
-6.396012783050537 -7.149028778076172 0.256216704845428 0.000000000000000
-6.395898818969727 -5.673357486724854 0.722432553768158 0.000000000000000
-6.393548011779785 -11.168735504150391 0.615904152393341 0.000000000000000
-6.392513751983643 -10.330996513366699 0.417877286672592 0.000000000000000
-6.390225410461426 -9.835948944091797 0.900475561618805 0.000000000000000
-6.384872436523438 -5.738482952117920 0.576213955879211 0.000000000000000
-6.380798816680908 -10.880595207214355 0.603666365146637 0.000000000000000
-6.379140853881836 -10.213125228881836 0.391047030687332 0.000000000000000
-6.378629207611084 -8.989221572875977 0.188547804951668 0.000000000000000
-6.374836444854736 -10.983030319213867 0.656638562679291 0.000000000000000
-6.373400688171387 -11.939330101013184 0.960629224777222 0.000000000000000
-6.373233795166016 -10.436525344848633 3.276649236679077 0.000000000000000
-6.371775150299072 -7.120938301086426 0.788962006568909 0.000000000000000
-6.370435714721680 -6.647206306457520 1.915047168731689 0.000000000000000
-6.365382194519043 -3.633548498153687 1.963918924331665 0.000000000000000
-6.364462375640869 -11.309865951538086 0.246917784214020 0.000000000000000
-6.362646102905273 -10.753937721252441 3.348083257675171 0.000000000000000
-6.358607292175293 -4.703234195709229 2.119210481643677 0.000000000000000
-6.355128765106201 -13.174371719360352 0.981787204742432 0.000000000000000
-6.348591327667236 -5.143187522888184 0.740697741508484 0.000000000000000
-6.344864845275879 -8.983761787414551 1.045467615127563 0.000000000000000
-6.336578369140625 -11.841484069824219 1.108891487121582 0.000000000000000
-6.332447052001953 -8.457983970642090 2.197701930999756 0.000000000000000
-6.327254772186279 -5.737607479095459 0.622739732265472 0.000000000000000
-6.325849056243896 -10.725461006164551 0.835791587829590 0.000000000000000
-6.320042610168457 -10.960772514343262 0.629870355129242 0.000000000000000
-6.317833900451660 -5.606474876403809 0.599543631076813 0.000000000000000
-6.317578792572021 -9.549167633056641 0.570005834102631 0.000000000000000
-6.315773963928223 -12.805996894836426 0.189411550760269 0.000000000000000
-6.315345764160156 -9.455871582031250 1.291528463363647 0.000000000000000
-6.310376644134521 -8.948511123657227 2.933972835540771 0.000000000000000
-6.294954299926758 -5.552093982696533 0.760921537876129 0.000000000000000
-6.294714450836182 -10.215126037597656 0.712862670421600 0.000000000000000
-6.288921356201172 7.069950103759766 0.799559354782104 1.000000000000000
-6.288729667663574 -11.474236488342285 0.299215525388718 0.000000000000000
-6.288388729095459 6.738282203674316 1.046855807304382 1.000000000000000
-6.288268566131592 -12.707711219787598 0.705844640731812 0.000000000000000
-6.285443782806396 -10.861301422119141 0.528148412704468 0.000000000000000
-6.284777641296387 -10.494445800781250 1.033634305000305 0.000000000000000
-6.282708644866943 -5.733284473419189 0.423427224159241 0.000000000000000
-6.281789302825928 -8.221890449523926 2.772469758987427 0.000000000000000
-6.280690193176270 -5.462417602539062 0.062470335513353 0.000000000000000
-6.280314445495605 -7.638167858123779 1.690285563468933 0.000000000000000
-6.279207229614258 7.215256690979004 0.771258354187012 1.000000000000000
-6.275879383087158 -12.149927139282227 0.680785059928894 0.000000000000000
-6.272237300872803 -10.033393859863281 1.187306165695190 0.000000000000000
-6.270994663238525 -5.799689769744873 0.195331424474716 0.000000000000000
-6.264707565307617 -9.654547691345215 0.728117704391479 0.000000000000000
-6.263427734375000 -7.739936351776123 2.667906761169434 0.000000000000000
-6.257002830505371 -12.180564880371094 1.077714204788208 0.000000000000000
-6.256679534912109 -10.151022911071777 0.685463607311249 0.000000000000000
-6.248383045196533 -11.483226776123047 0.273843079805374 0.000000000000000
-6.246033191680908 -9.796006202697754 0.779804289340973 0.000000000000000
-6.241567611694336 -12.803348541259766 0.681682169437408 0.000000000000000
-6.241055965423584 -5.535617351531982 0.543858230113983 0.000000000000000
-6.233272075653076 -13.064804077148438 0.108640149235725 0.000000000000000
-6.229975700378418 -10.002642631530762 1.568150758743286 0.000000000000000
-6.225466251373291 -8.890556335449219 1.089062929153442 0.000000000000000
-6.215759754180908 -8.485919952392578 2.187927246093750 0.000000000000000
-6.213200569152832 7.830119132995605 1.135335206985474 1.000000000000000
-6.212188243865967 -8.626418113708496 0.181843280792236 0.000000000000000
-6.211911678314209 -13.110593795776367 0.081027537584305 0.000000000000000
-6.208632469177246 -10.728570938110352 0.712551593780518 0.000000000000000
-6.208381175994873 -11.326697349548340 0.842069387435913 0.000000000000000
-6.205938816070557 -10.522152900695801 0.443668603897095 0.000000000000000
-6.199949264526367 -10.536357879638672 0.679211139678955 0.000000000000000
-6.199918746948242 -8.526570320129395 2.192814588546753 0.000000000000000
-6.199450492858887 -12.096041679382324 1.808755278587341 0.000000000000000
-6.199253559112549 -11.152513504028320 1.156730771064758 0.000000000000000
-6.185638427734375 -13.145742416381836 0.471801102161407 0.000000000000000
-6.182842731475830 -12.481506347656250 0.291769802570343 0.000000000000000
-6.178232669830322 -5.518935203552246 0.572028636932373 0.000000000000000
-6.174397468566895 -8.307167053222656 2.152900695800781 0.000000000000000
-6.170909404754639 -10.867621421813965 0.405847638845444 0.000000000000000
-6.166598320007324 -12.394275665283203 0.822460889816284 0.000000000000000
-6.162514686584473 -7.548455715179443 0.260275155305862 0.000000000000000
-6.160695075988770 -12.314430236816406 0.261983960866928 0.000000000000000
-6.157138347625732 -10.964715003967285 1.062598943710327 0.000000000000000
-6.155103206634521 -12.113503456115723 1.148145675659180 0.000000000000000
-6.153521060943604 -5.427351474761963 1.402505636215210 0.000000000000000
-6.152898311614990 -12.746046066284180 0.269288778305054 0.000000000000000
-6.145508289337158 -2.693598985671997 0.821494638919830 0.000000000000000
-6.144627571105957 -10.221934318542480 0.181112140417099 0.000000000000000
-6.142354011535645 -12.291711807250977 0.287832617759705 0.000000000000000
-6.138435363769531 -11.548612594604492 0.374457448720932 0.000000000000000
-6.136619091033936 -9.840507507324219 0.398901611566544 0.000000000000000
-6.135413169860840 -2.776566267013550 1.804486393928528 0.000000000000000
-6.130970954895020 -10.117856025695801 0.475160419940948 0.000000000000000
-6.126729488372803 -10.616517066955566 0.398057848215103 0.000000000000000
-6.125900268554688 -2.763633966445923 0.609242796897888 0.000000000000000
-6.115613937377930 -13.137722969055176 0.972679257392883 0.000000000000000
-6.101847648620605 -11.395180702209473 1.042275667190552 0.000000000000000
-6.097824096679688 -8.204143524169922 0.449881792068481 0.000000000000000
-6.096208572387695 -12.936930656433105 0.436945080757141 0.000000000000000
-6.091918468475342 -11.341409683227539 1.223749756813049 0.000000000000000
-6.090453147888184 -12.389441490173340 0.262668788433075 0.000000000000000
-6.089048862457275 -5.214156150817871 0.429947406053543 1.000000000000000
-6.081105232238770 -8.368696212768555 0.901414394378662 0.000000000000000
-6.080975532531738 -8.749051094055176 0.161798357963562 0.000000000000000
-6.080486297607422 5.572126865386963 1.715478301048279 1.000000000000000
-6.080343723297119 -10.397761344909668 0.599639773368835 0.000000000000000
-6.079753875732422 6.533898353576660 1.856398344039917 1.000000000000000
-6.078035354614258 -8.368462562561035 0.157061040401459 0.000000000000000
-6.068402290344238 -5.379830837249756 0.544336020946503 0.000000000000000
-6.062475681304932 -10.043541908264160 0.448625415563583 0.000000000000000
-6.059660434722900 -11.037081718444824 1.015270471572876 0.000000000000000
-6.057747840881348 -7.113302707672119 0.681203424930573 0.000000000000000
-6.053437709808350 -8.970876693725586 2.899808645248413 0.000000000000000
-6.052301883697510 -12.009636878967285 0.307537227869034 0.000000000000000
-6.051428794860840 -10.510171890258789 0.627101242542267 0.000000000000000
-6.051178455352783 -10.797194480895996 1.122061371803284 0.000000000000000
-6.050786495208740 -10.594402313232422 0.818915009498596 0.000000000000000
-6.048848152160645 -11.375269889831543 0.567012906074524 0.000000000000000
-6.046159267425537 -11.394188880920410 0.865794360637665 0.000000000000000
-6.045923709869385 -10.992498397827148 3.361541986465454 0.000000000000000
-6.045835018157959 -10.260515213012695 0.592877686023712 0.000000000000000
-6.045179367065430 -11.088108062744141 0.993919909000397 0.000000000000000
-6.043196678161621 -12.199599266052246 1.666807770729065 0.000000000000000
-6.038033485412598 -8.076790809631348 2.702070951461792 0.000000000000000
-6.037104129791260 -5.384916305541992 0.652306437492371 0.000000000000000
-6.026212215423584 -10.241919517517090 1.454871892929077 0.000000000000000
-6.024167060852051 -11.044061660766602 3.370859384536743 0.000000000000000
-6.010331630706787 -11.718978881835938 0.884010314941406 0.000000000000000
-6.009867668151855 -8.345469474792480 0.492187917232513 0.000000000000000
-6.005370140075684 -10.226088523864746 1.033362507820129 0.000000000000000
-6.005225658416748 -10.124416351318359 1.744551658630371 0.000000000000000
-6.004886627197266 -8.250474929809570 0.272557318210602 0.000000000000000
-5.996046066284180 -12.002071380615234 0.306805670261383 0.000000000000000
-5.995309829711914 -10.419431686401367 1.015783905982971 0.000000000000000
-5.993758201599121 8.514977455139160 1.779921889305115 1.000000000000000
-5.993550300598145 -5.142177104949951 0.652037441730499 0.000000000000000
-5.982032775878906 -8.345766067504883 2.135794878005981 0.000000000000000
-5.975925922393799 -12.224295616149902 0.180498063564301 0.000000000000000
-5.969080448150635 -9.843712806701660 1.094296455383301 0.000000000000000
-5.966411113739014 -13.083623886108398 1.020668506622314 0.000000000000000
-5.965781688690186 -11.714068412780762 0.831665456295013 0.000000000000000
-5.964827060699463 -4.924372196197510 0.623693645000458 0.000000000000000
-5.963091373443604 -12.472739219665527 0.927942991256714 0.000000000000000
-5.960628986358643 -7.596136093139648 0.741261839866638 0.000000000000000
-5.959263801574707 -11.333415031433105 0.292814224958420 0.000000000000000
-5.958724975585938 -5.167438030242920 0.514193177223206 0.000000000000000
-5.953007221221924 -12.651352882385254 0.239173844456673 0.000000000000000
-5.950273990631104 -8.115744590759277 0.114170014858246 0.000000000000000
-5.949981689453125 -7.901341438293457 2.650307178497314 0.000000000000000
-5.947870254516602 6.400221824645996 1.493489980697632 1.000000000000000
-5.947522163391113 -2.834529399871826 1.126183152198792 0.000000000000000
-5.930119037628174 -9.138913154602051 0.857401072978973 0.000000000000000
-5.927851676940918 -5.213613986968994 0.636553347110748 0.000000000000000
-5.925411701202393 -11.328970909118652 3.425729036331177 0.000000000000000
-5.922828674316406 -5.141018867492676 0.284842222929001 0.000000000000000
-5.922273159027100 -10.460769653320312 0.274890542030334 0.000000000000000
-5.922159194946289 -11.482829093933105 1.066760897636414 0.000000000000000
-5.921926021575928 -11.883778572082520 1.203678965568542 0.000000000000000
-5.914765357971191 -8.495037078857422 0.117437206208706 0.000000000000000
-5.913784503936768 -12.549804687500000 0.637265324592590 0.000000000000000
-5.913199424743652 -10.594315528869629 0.417327255010605 0.000000000000000
-5.910967826843262 -11.590419769287109 1.305517554283142 0.000000000000000
-5.907575130462646 -10.662377357482910 0.395850747823715 0.000000000000000
-5.906017780303955 -10.572342872619629 0.579573273658752 0.000000000000000
-5.900591850280762 -8.315537452697754 0.487981170415878 0.000000000000000
-5.893869876861572 -11.591369628906250 1.073672890663147 0.000000000000000
-5.893080711364746 -11.472114562988281 0.418830603361130 0.000000000000000
-5.887351036071777 8.028744697570801 1.130820989608765 1.000000000000000
-5.886287689208984 -11.085427284240723 1.425601959228516 0.000000000000000
-5.884803771972656 -9.749197959899902 1.515386581420898 0.000000000000000
-5.882738113403320 -11.172725677490234 1.434178948402405 0.000000000000000
-5.881970405578613 -10.821530342102051 0.281657665967941 0.000000000000000
-5.878169059753418 -8.276894569396973 0.290659576654434 0.000000000000000
-5.877802371978760 -9.147890090942383 0.562242925167084 0.000000000000000
-5.874283313751221 -11.656393051147461 0.901303231716156 0.000000000000000
-5.871531963348389 -9.698105812072754 0.498950242996216 0.000000000000000
-5.867794036865234 -11.950192451477051 0.278869271278381 0.000000000000000
-5.867516517639160 -10.523687362670898 0.808735489845276 0.000000000000000
-5.867208003997803 -2.320505380630493 1.690606117248535 0.000000000000000
-5.867177486419678 -4.814896583557129 0.524084031581879 0.000000000000000
-5.867062091827393 -11.663326263427734 0.725364685058594 0.000000000000000
-5.866746425628662 -9.335015296936035 0.379238426685333 0.000000000000000
-5.861294269561768 -11.900712013244629 0.405307173728943 0.000000000000000
-5.861077785491943 -12.214406013488770 0.335833996534348 0.000000000000000
-5.859837055206299 -10.474640846252441 0.482063144445419 0.000000000000000
-5.859454631805420 -9.862171173095703 0.615251064300537 0.000000000000000
-5.857367515563965 -10.315440177917480 0.567717909812927 0.000000000000000
-5.853626251220703 -12.247068405151367 0.519090950489044 0.000000000000000
-5.848843574523926 -10.980649948120117 0.931091904640198 0.000000000000000
-5.838232040405273 -9.635891914367676 3.018865346908569 0.000000000000000
-5.831059455871582 -5.701031208038330 0.689089477062225 0.000000000000000
-5.829602718353271 -10.662121772766113 2.077137231826782 0.000000000000000
-5.828346729278564 -11.666394233703613 0.699441015720367 0.000000000000000
-5.827524185180664 -11.999179840087891 0.741119027137756 0.000000000000000
-5.826870441436768 -8.311749458312988 2.111357688903809 0.000000000000000
-5.825224876403809 -11.521494865417480 0.593031227588654 0.000000000000000
-5.823762893676758 -8.989087104797363 0.533212006092072 0.000000000000000
-5.819630622863770 -13.045974731445312 0.876219987869263 0.000000000000000
-5.818278789520264 -9.453409194946289 2.974348545074463 0.000000000000000
-5.814750671386719 -10.122790336608887 0.648590087890625 0.000000000000000
-5.808547973632812 -12.041293144226074 0.280042052268982 0.000000000000000
-5.808480739593506 -10.836402893066406 0.352019757032394 0.000000000000000
-5.807590961456299 9.834975242614746 0.832743585109711 1.000000000000000
-5.806738376617432 -9.851594924926758 0.613323032855988 0.000000000000000
-5.803449153900146 -12.590970039367676 0.743571162223816 0.000000000000000
-5.802557945251465 -12.157673835754395 0.126968726515770 0.000000000000000
-5.802423000335693 -8.992565155029297 0.800936043262482 0.000000000000000
-5.802241325378418 -10.678399085998535 0.605009675025940 0.000000000000000
-5.800959110260010 -11.101402282714844 0.599459648132324 0.000000000000000
-5.795694828033447 -11.834663391113281 1.613337755203247 0.000000000000000
-5.794759273529053 -12.221347808837891 0.257342368364334 0.000000000000000
-5.793348312377930 -8.325610160827637 2.109728813171387 0.000000000000000
-5.790569305419922 -12.306139945983887 0.650896489620209 0.000000000000000
-5.786385059356689 -9.849263191223145 1.692948102951050 0.000000000000000
-5.783988952636719 -12.284927368164062 0.388767212629318 0.000000000000000
-5.783184051513672 -7.234622955322266 0.839649975299835 0.000000000000000
-5.782766819000244 -5.673984527587891 0.200826346874237 0.000000000000000
-5.780770301818848 -8.115120887756348 0.093907102942467 0.000000000000000
-5.780313014984131 -10.711907386779785 0.442071616649628 0.000000000000000
-5.778649330139160 -12.170358657836914 0.644777655601501 0.000000000000000
-5.776678562164307 -12.551320075988770 0.554942488670349 0.000000000000000
-5.776590824127197 -11.916529655456543 0.175669923424721 0.000000000000000
-5.776423931121826 -11.767225265502930 0.299764215946198 0.000000000000000
-5.776142597198486 -11.831839561462402 0.199940025806427 0.000000000000000
-5.773877620697021 -12.979925155639648 1.090613365173340 0.000000000000000
-5.773433685302734 -2.297761201858521 1.062157154083252 0.000000000000000
-5.773222923278809 9.855189323425293 0.832743585109711 1.000000000000000
-5.769601821899414 -10.108627319335938 0.624248445034027 0.000000000000000
-5.764749050140381 -11.847814559936523 1.753352880477905 0.000000000000000
-5.762402534484863 -12.027602195739746 0.638276278972626 0.000000000000000
-5.761117458343506 -9.544289588928223 0.942025125026703 0.000000000000000
-5.757871627807617 -10.670319557189941 0.813825249671936 0.000000000000000
-5.755584239959717 -10.238735198974609 0.788376450538635 0.000000000000000
-5.751114368438721 -11.970244407653809 1.262358665466309 0.000000000000000
-5.750206947326660 -8.710058212280273 0.992096543312073 0.000000000000000
-5.741670131683350 -7.963660240173340 2.630636930465698 0.000000000000000
-5.741470336914062 -13.050958633422852 0.984517455101013 0.000000000000000
-5.736986637115479 -12.437632560729980 0.286911159753799 0.000000000000000
-5.736880779266357 -12.192041397094727 1.060453295707703 0.000000000000000
-5.733972072601318 -11.084671974182129 0.837666749954224 0.000000000000000
-5.733906745910645 -10.295035362243652 1.568150758743286 0.000000000000000
-5.726573944091797 -12.424184799194336 0.312841176986694 0.000000000000000
-5.721963405609131 -5.411748886108398 0.059108167886734 0.000000000000000
-5.720424652099609 -12.476652145385742 0.630474209785461 0.000000000000000
-5.719998359680176 -12.296822547912598 0.518632352352142 0.000000000000000
-5.716310024261475 -9.081213951110840 0.678869366645813 0.000000000000000
-5.714148998260498 -5.291731834411621 0.706028282642365 0.000000000000000
-5.708857536315918 -8.713422775268555 2.166748285293579 0.000000000000000
-5.708007812500000 -7.582491397857666 0.417697131633759 0.000000000000000
-5.707687854766846 -12.256367683410645 1.037950277328491 0.000000000000000
-5.706496238708496 -7.559590816497803 0.398634344339371 0.000000000000000
-5.705874443054199 -9.830493927001953 0.762927651405334 0.000000000000000
-5.705576896667480 -10.233240127563477 0.605826020240784 0.000000000000000
-5.705139636993408 -12.153759956359863 0.513435363769531 0.000000000000000
-5.703710079193115 -11.959153175354004 1.201151013374329 0.000000000000000
-5.702347278594971 -12.118650436401367 0.847323954105377 0.000000000000000
-5.702313899993896 -10.940984725952148 0.804337620735168 0.000000000000000
-5.693853855133057 -11.745851516723633 1.240783095359802 0.000000000000000
-5.691824436187744 -7.129517078399658 0.867185533046722 0.000000000000000
-5.689871311187744 -7.178315639495850 0.544195353984833 0.000000000000000
-5.689133644104004 -12.107576370239258 0.254526972770691 0.000000000000000
-5.688057899475098 -9.438879966735840 0.782210409641266 0.000000000000000
-5.687662124633789 -10.128665924072266 0.802107572555542 0.000000000000000
-5.684727191925049 -12.800561904907227 1.183509588241577 0.000000000000000
-5.680612564086914 10.029000282287598 0.773643016815186 1.000000000000000
-5.679503917694092 -2.147466897964478 1.037894606590271 0.000000000000000
-5.677943706512451 10.047583580017090 0.730138123035431 1.000000000000000
-5.677414417266846 -12.196372032165527 0.281801193952560 0.000000000000000
-5.677047729492188 -11.363543510437012 0.485768854618073 0.000000000000000
-5.675627231597900 -12.049310684204102 0.586183011531830 0.000000000000000
-5.671153545379639 -4.164198875427246 1.885238051414490 0.000000000000000
-5.669848918914795 -10.277697563171387 0.652140378952026 0.000000000000000
-5.665472984313965 -12.069257736206055 0.715079367160797 0.000000000000000
-5.664808750152588 -2.119337558746338 1.033850908279419 0.000000000000000
-5.664796829223633 -6.889570236206055 0.808591961860657 0.000000000000000
-5.664521694183350 -7.148383140563965 0.366323024034500 0.000000000000000
-5.661155700683594 -11.352539062500000 0.509513258934021 0.000000000000000
-5.661082267761230 6.711329936981201 1.826259374618530 1.000000000000000
-5.659423828125000 -12.507451057434082 0.736287593841553 0.000000000000000
-5.659377098083496 -6.608977794647217 0.349467664957047 0.000000000000000
-5.657364845275879 -2.101596355438232 1.617101430892944 0.000000000000000
-5.655414104461670 -7.834507465362549 1.431998372077942 0.000000000000000
-5.654740810394287 -7.712658405303955 0.402502954006195 0.000000000000000
-5.652853012084961 -11.933897018432617 0.708224236965179 0.000000000000000
-5.652180194854736 -12.166572570800781 0.667857527732849 0.000000000000000
-5.644643306732178 -7.121256351470947 0.863778829574585 0.000000000000000
-5.640795707702637 -11.387258529663086 0.070974491536617 1.000000000000000
-5.639017581939697 -12.221872329711914 0.462978869676590 0.000000000000000
-5.638392925262451 -12.008300781250000 0.890439450740814 0.000000000000000
-5.633250236511230 -12.063501358032227 0.611569166183472 0.000000000000000
-5.632593154907227 -10.270265579223633 0.245361402630806 0.000000000000000
-5.631379604339600 -12.170123100280762 0.615974247455597 0.000000000000000
-5.625039100646973 -8.651218414306641 2.146384239196777 0.000000000000000
-5.624624252319336 -11.693374633789062 2.217994213104248 0.000000000000000
-5.623077392578125 -12.312518119812012 0.934644043445587 0.000000000000000
-5.621821880340576 -9.528362274169922 0.678592979907990 0.000000000000000
-5.621636390686035 -11.183215141296387 1.134701251983643 0.000000000000000
-5.620657920837402 -12.317458152770996 0.882663607597351 0.000000000000000
-5.617362022399902 -8.133109092712402 2.055967330932617 0.000000000000000
-5.616454124450684 -7.549340724945068 0.853012204170227 0.000000000000000
-5.614873886108398 -7.172766685485840 0.646555542945862 0.000000000000000
-5.609989166259766 -10.175907135009766 0.310365051031113 0.000000000000000
-5.605734825134277 -8.363640785217285 2.094251871109009 0.000000000000000
-5.604969978332520 -10.635721206665039 0.575366497039795 0.000000000000000
-5.604162216186523 -11.938646316528320 0.301593154668808 0.000000000000000
-5.597347736358643 -10.049848556518555 0.616964817047119 0.000000000000000
-5.591891765594482 -12.358203887939453 0.310189217329025 0.000000000000000
-5.590887069702148 -5.948694705963135 0.076942749321461 0.000000000000000
-5.586240768432617 -12.883740425109863 1.078059911727905 0.000000000000000
-5.584655761718750 -12.538043975830078 1.080224871635437 0.000000000000000
-5.583909034729004 -10.989369392395020 0.851154327392578 0.000000000000000
-5.583847522735596 -11.578579902648926 1.710613965988159 0.000000000000000
-5.581776142120361 -12.192218780517578 0.848334133625031 0.000000000000000
-5.571047306060791 -10.164773941040039 0.621677756309509 0.000000000000000
-5.564174175262451 -11.264191627502441 0.335570216178894 0.000000000000000
-5.563500881195068 -10.060826301574707 0.594465494155884 0.000000000000000
-5.563484668731689 -6.573248863220215 0.081164985895157 0.000000000000000
-5.563076972961426 -9.826305389404297 0.605610966682434 0.000000000000000
-5.560339927673340 -7.814914703369141 0.127229377627373 0.000000000000000
-5.559956073760986 5.658243179321289 0.971210896968842 1.000000000000000
-5.558964252471924 -12.158087730407715 1.026315569877625 0.000000000000000
-5.558882713317871 -11.909121513366699 0.376289099454880 0.000000000000000
-5.558080673217773 -9.897905349731445 0.608824372291565 0.000000000000000
-5.551601886749268 -11.409749984741211 0.290162235498428 0.000000000000000
-5.546734333038330 -11.479596138000488 0.610167682170868 0.000000000000000
-5.544761657714844 -7.138483524322510 0.819426178932190 0.000000000000000
-5.544054985046387 -9.205736160278320 0.617743670940399 0.000000000000000
-5.539488792419434 -11.441653251647949 0.315116971731186 0.000000000000000
-5.538509368896484 -7.895724296569824 0.257605135440826 0.000000000000000
-5.536970615386963 -7.803095817565918 0.016699302941561 0.000000000000000
-5.536186218261719 -9.929429054260254 0.412890553474426 0.000000000000000
-5.534644126892090 -12.249897003173828 0.954115509986877 0.000000000000000
-5.530716419219971 -8.637510299682617 2.133351325988770 0.000000000000000
-5.528361797332764 -12.075545310974121 1.414627194404602 0.000000000000000
-5.526675701141357 -9.821089744567871 0.387626230716705 0.000000000000000
-5.524028301239014 -5.406887054443359 0.310459554195404 0.000000000000000
-5.522081375122070 -10.040065765380859 1.149766087532043 0.000000000000000
-5.521773338317871 -6.215389251708984 0.753698766231537 0.000000000000000
-5.517394542694092 -12.163594245910645 1.422676920890808 0.000000000000000
-5.515831947326660 -7.305420398712158 0.508576273918152 0.000000000000000
-5.513095378875732 -12.175008773803711 0.279958277940750 0.000000000000000
-5.513088226318359 -12.059417724609375 0.864448308944702 0.000000000000000
-5.510933399200439 -5.790693283081055 0.474925488233566 0.000000000000000
-5.507656574249268 -9.212108612060547 0.761819720268250 0.000000000000000
-5.507238388061523 -11.247632980346680 0.334502190351486 0.000000000000000
-5.506887912750244 -7.190220355987549 0.241905316710472 0.000000000000000
-5.506571769714355 -12.598649024963379 1.082107901573181 0.000000000000000
-5.506153106689453 -12.056495666503906 0.506862640380859 0.000000000000000
-5.502834320068359 -11.407539367675781 1.550631880760193 0.000000000000000
-5.498998165130615 -12.701961517333984 1.089326143264771 0.000000000000000
-5.498096466064453 -11.791249275207520 0.222549363970757 0.000000000000000
-5.497576236724854 -10.906046867370605 0.255832612514496 0.000000000000000
-5.495428562164307 -8.324134826660156 2.074702262878418 0.000000000000000
-5.489236354827881 -10.984731674194336 0.445991456508636 0.000000000000000
-5.487800121307373 -9.476861000061035 0.608427643775940 0.000000000000000
-5.486446380615234 -7.654353618621826 0.895195841789246 0.000000000000000
-5.486308097839355 -9.571496963500977 0.506765425205231 0.000000000000000
-5.486050128936768 -9.264593124389648 0.142827972769737 0.000000000000000
-5.482159137725830 -10.058329582214355 0.327979415655136 0.000000000000000
-5.479199409484863 -6.899661540985107 0.767730057239532 0.000000000000000
-5.476856708526611 -10.661847114562988 0.573645591735840 0.000000000000000
-5.471904754638672 -9.472272872924805 0.439362913370132 0.000000000000000
-5.470537185668945 -6.948318481445312 1.310612797737122 0.000000000000000
-5.468875885009766 -6.461468696594238 0.339996546506882 0.000000000000000
-5.465549945831299 -12.555519104003906 0.971957385540009 0.000000000000000
-5.465156078338623 -9.989760398864746 1.394110441207886 0.000000000000000
-5.460548877716064 -9.190765380859375 0.738181412220001 0.000000000000000
-5.456703662872314 -11.936080932617188 0.451428502798080 0.000000000000000
-5.451170444488525 -11.224247932434082 0.501165866851807 0.000000000000000
-5.448738098144531 -12.866378784179688 0.937854588031769 0.000000000000000
-5.443186759948730 -10.122634887695312 1.964586377143860 0.000000000000000
-5.435850620269775 -11.999404907226562 1.011312723159790 0.000000000000000
-5.434312343597412 -11.980432510375977 1.035346388816833 0.000000000000000
-5.434106826782227 -6.156416416168213 0.077395133674145 0.000000000000000
-5.430696964263916 -9.902134895324707 0.932469487190247 0.000000000000000
-5.428089141845703 -7.512959003448486 0.247565791010857 0.000000000000000
-5.427112102508545 -6.553728103637695 0.771394610404968 0.000000000000000
-5.425889492034912 -7.424680233001709 0.016050038859248 0.000000000000000
-5.425483703613281 -11.770948410034180 0.894965767860413 0.000000000000000
-5.419720649719238 -10.813030242919922 0.555588185787201 0.000000000000000
-5.418213844299316 -11.244150161743164 0.813705503940582 0.000000000000000
-5.413381099700928 -11.006775856018066 0.587030649185181 0.000000000000000
-5.410409450531006 -9.733376502990723 0.297442078590393 0.000000000000000
-5.409986019134521 -13.843051910400391 0.797127127647400 0.000000000000000
-5.407785892486572 -12.219482421875000 1.000050663948059 0.000000000000000
-5.406611919403076 -2.817982912063599 1.633665919303894 0.000000000000000
-5.401968002319336 -7.777045726776123 0.234726935625076 0.000000000000000
-5.400594234466553 -10.965311050415039 0.561461627483368 0.000000000000000
-5.396965503692627 -7.261193275451660 0.859993636608124 0.000000000000000
-5.394174098968506 -11.921242713928223 0.903507590293884 0.000000000000000
-5.389009952545166 -6.798265933990479 0.755924105644226 0.000000000000000
-5.388983249664307 -7.085847854614258 0.775716364383698 0.000000000000000
-5.388191699981689 -6.833907127380371 0.483502507209778 0.000000000000000
-5.388161659240723 -7.170882701873779 0.688598930835724 0.000000000000000
-5.387983798980713 -7.418374538421631 2.456710577011108 0.000000000000000
-5.385523796081543 -11.746209144592285 0.394801914691925 0.000000000000000
-5.382932186126709 -9.903409957885742 0.604539811611176 0.000000000000000
-5.382913589477539 -9.487976074218750 0.879600942134857 0.000000000000000
-5.381329536437988 4.496459484100342 1.879026293754578 1.000000000000000
-5.379554271697998 -11.084662437438965 0.518561065196991 0.000000000000000
-5.379079818725586 -10.419994354248047 0.832337617874146 0.000000000000000
-5.375399589538574 4.461316585540771 1.871779441833496 1.000000000000000
-5.374516963958740 -8.458439826965332 2.084476947784424 0.000000000000000
-5.374127864837646 -12.610445022583008 0.814395189285278 0.000000000000000
-5.366427421569824 -4.686715602874756 0.574505448341370 0.000000000000000
-5.361217498779297 -6.958669185638428 0.835011422634125 0.000000000000000
-5.359472751617432 -7.497362136840820 0.016084946691990 0.000000000000000
-5.353980541229248 -11.302938461303711 0.478279024362564 0.000000000000000
-5.345057010650635 -11.893846511840820 1.026245117187500 0.000000000000000
-5.337637901306152 -10.028500556945801 0.281612843275070 0.000000000000000
-5.334804534912109 -9.177902221679688 1.205757737159729 0.000000000000000
-5.329874992370605 -13.818436622619629 0.196468040347099 0.000000000000000
-5.328104019165039 -11.746286392211914 0.816007018089294 0.000000000000000
-5.322422981262207 -11.135675430297852 0.661951839923859 0.000000000000000
-5.321680545806885 -7.548999309539795 0.264444142580032 0.000000000000000
-5.318678855895996 -8.926063537597656 0.337427377700806 0.000000000000000
-5.316453933715820 -11.358703613281250 1.035492062568665 0.000000000000000
-5.310960292816162 -11.009778976440430 0.068271346390247 0.000000000000000
-5.309697151184082 -10.876373291015625 0.555955290794373 0.000000000000000
-5.307217597961426 -7.088627815246582 0.662720084190369 0.000000000000000
-5.303450107574463 -11.092996597290039 0.635776519775391 0.000000000000000
-5.302526473999023 -11.252636909484863 0.954975545406342 0.000000000000000
-5.299479484558105 -9.998000144958496 0.956170618534088 0.000000000000000
-5.298017501831055 -11.511305809020996 1.104197859764099 0.000000000000000
-5.296354770660400 -11.054841995239258 0.964733123779297 0.000000000000000
-5.295384407043457 -9.548804283142090 2.925690650939941 0.000000000000000
-5.294069766998291 -9.613174438476562 1.043196439743042 0.000000000000000
-5.289875507354736 -7.016841888427734 0.657645225524902 0.000000000000000
-5.289484977722168 -12.003649711608887 1.007026195526123 0.000000000000000
-5.284924030303955 -10.050945281982422 0.434257149696350 0.000000000000000
-5.272636890411377 -6.551277160644531 0.762366056442261 0.000000000000000
-5.271948337554932 -7.312159061431885 0.414075642824173 0.000000000000000
-5.268468856811523 -8.727438926696777 0.664599895477295 0.000000000000000
-5.266462802886963 -7.206524372100830 0.427174776792526 0.000000000000000
-5.260612487792969 -9.691263198852539 0.612643599510193 0.000000000000000
-5.253362655639648 -12.647761344909668 0.945665776729584 0.000000000000000
-5.246432304382324 -8.737746238708496 0.291804343461990 0.000000000000000
-5.242695808410645 -8.417499542236328 0.837954401969910 0.000000000000000
-5.240447044372559 -4.116721153259277 0.229220613837242 0.000000000000000
-5.240336418151855 -8.479531288146973 1.326490879058838 0.000000000000000
-5.240163326263428 -11.572271347045898 0.852668106555939 0.000000000000000
-5.237842559814453 -9.636476516723633 0.419430375099182 0.000000000000000
-5.237087726593018 -12.648442268371582 1.676043510437012 0.000000000000000
-5.237069129943848 -11.789223670959473 1.065115094184875 0.000000000000000
-5.231432914733887 -11.641010284423828 0.807420134544373 0.000000000000000
-5.229706287384033 -4.148283958435059 1.141010165214539 0.000000000000000
-5.224159717559814 -4.338876247406006 0.534463405609131 0.000000000000000
-5.223333835601807 -9.854343414306641 0.255046486854553 0.000000000000000
-5.222306251525879 -6.635414600372314 0.735784709453583 0.000000000000000
-5.219902515411377 -10.707603454589844 0.753625810146332 0.000000000000000
-5.219725131988525 -10.977382659912109 0.558341324329376 0.000000000000000
-5.218938827514648 -4.833130359649658 0.518610477447510 0.000000000000000
-5.218608379364014 -10.628078460693359 0.612229287624359 0.000000000000000
-5.209375381469727 -10.955616950988770 1.217258453369141 0.000000000000000
-5.208443641662598 -9.726752281188965 0.379513442516327 0.000000000000000
-5.198943138122559 -11.112690925598145 1.166214942932129 0.000000000000000
-5.195336818695068 -10.752339363098145 0.387801319360733 0.000000000000000
-5.193333625793457 -9.634593009948730 0.250291258096695 0.000000000000000
-5.191715240478516 -8.851898193359375 0.451640516519547 0.000000000000000
-5.189795970916748 -7.452141761779785 0.225111871957779 0.000000000000000
-5.188958644866943 -4.076273918151855 0.532068550586700 0.000000000000000
-5.187797069549561 -11.983127593994141 0.826109230518341 0.000000000000000
-5.186973094940186 -4.277483940124512 0.529128193855286 0.000000000000000
-5.184026718139648 -10.580045700073242 0.654581129550934 0.000000000000000
-5.180843830108643 -10.008539199829102 0.214426606893539 0.000000000000000
-5.171006202697754 -12.619506835937500 1.020648717880249 0.000000000000000
-5.165349960327148 -5.855230331420898 0.707833945751190 0.000000000000000
-5.165105819702148 -8.423407554626465 1.314882755279541 0.000000000000000
-5.158725261688232 -12.419915199279785 0.721291840076447 0.000000000000000
-5.148582458496094 -9.416561126708984 0.286655128002167 0.000000000000000
-5.147914409637451 -10.037432670593262 0.409696578979492 0.000000000000000
-5.145604610443115 -12.148212432861328 0.707581579685211 0.000000000000000
-5.141270637512207 -10.660859107971191 0.817262411117554 0.000000000000000
-5.138419628143311 -9.423748016357422 0.472393482923508 0.000000000000000
-5.132793903350830 -11.092617034912109 0.185606539249420 0.000000000000000
-5.132246017456055 -12.358600616455078 0.898208081722260 0.000000000000000
-5.132086753845215 -9.338320732116699 0.305083811283112 0.000000000000000
-5.125926971435547 -8.246690750122070 1.439035296440125 0.000000000000000
-5.119875907897949 -6.316207408905029 0.737086296081543 0.000000000000000
-5.118196487426758 -9.575073242187500 0.248279392719269 0.000000000000000
-5.116632938385010 -10.062791824340820 0.583724677562714 0.000000000000000
-5.113355636596680 -11.131559371948242 2.547965764999390 0.000000000000000
-5.111670970916748 -9.483094215393066 1.433602213859558 0.000000000000000
-5.107454776763916 -9.487954139709473 0.432781279087067 0.000000000000000
-5.104143142700195 -8.713385581970215 0.775247871875763 0.000000000000000
-5.099124431610107 -11.278607368469238 0.806939780712128 0.000000000000000
-5.098459720611572 -4.411599159240723 0.676520943641663 0.000000000000000
-5.097371101379395 -13.707885742187500 0.953443288803101 0.000000000000000
-5.090405941009521 -8.099722862243652 1.086581230163574 0.000000000000000
-5.087657451629639 -7.142119884490967 0.352196604013443 0.000000000000000
-5.085628509521484 -7.047768592834473 0.757313013076782 0.000000000000000
-5.079305648803711 -10.616541862487793 0.404814332723618 0.000000000000000
-5.076531887054443 -4.020437240600586 0.235190823674202 0.000000000000000
-5.075871467590332 -8.784229278564453 0.466018617153168 0.000000000000000
-5.074851036071777 -7.124142169952393 0.762174308300018 0.000000000000000
-5.061941146850586 -2.550210714340210 1.518750309944153 0.000000000000000
-5.061241626739502 -8.861795425415039 0.370643317699432 0.000000000000000
-5.059491634368896 -10.775392532348633 0.615534186363220 0.000000000000000
-5.059206008911133 -3.989502906799316 0.612442612648010 1.000000000000000
-5.054412364959717 -6.364749908447266 0.576887309551239 0.000000000000000
-5.053753852844238 -9.763022422790527 0.378138393163681 0.000000000000000
-5.053119182586670 -8.174675941467285 0.645059704780579 0.000000000000000
-5.052095413208008 -8.571282386779785 0.227520868182182 0.000000000000000
-5.052032470703125 -7.986586093902588 0.798548936843872 0.000000000000000
-5.051087856292725 -4.297597885131836 0.024307496845722 0.000000000000000
-5.047791004180908 -9.599963188171387 0.748927652835846 0.000000000000000
-5.047022819519043 -4.397990703582764 0.671728551387787 0.000000000000000
-5.045891761779785 -11.579327583312988 1.067314028739929 0.000000000000000
-5.044804096221924 -6.929834842681885 0.080788001418114 0.000000000000000
-5.041819572448730 -10.444389343261719 0.577364563941956 0.000000000000000
-5.041312694549561 -8.404103279113770 0.790226340293884 0.000000000000000
-5.038640499114990 -3.985280275344849 0.220970332622528 0.000000000000000
-5.037420272827148 -8.023491859436035 0.344075471162796 0.000000000000000
-5.036954402923584 -12.215122222900391 0.632348656654358 0.000000000000000
-5.036371707916260 -10.081125259399414 0.778135240077972 0.000000000000000
-5.031828880310059 -9.061989784240723 0.985283255577087 0.000000000000000
-5.028037071228027 -12.254749298095703 0.761447668075562 0.000000000000000
-5.019458770751953 -4.273707389831543 1.126857042312622 0.000000000000000
-5.019280910491943 -11.302145957946777 0.853909790515900 0.000000000000000
-5.017792224884033 -8.347380638122559 0.297567307949066 0.000000000000000
-5.014398574829102 -9.770384788513184 0.208948001265526 0.000000000000000
-5.014017105102539 -12.318419456481934 0.867050468921661 0.000000000000000
-5.011789321899414 -6.694036483764648 0.794888496398926 0.000000000000000
-5.011769771575928 -12.337561607360840 0.970903933048248 0.000000000000000
-5.009958744049072 -8.234755516052246 1.282696723937988 0.000000000000000
-5.005488872528076 -13.273960113525391 0.215427488088608 0.000000000000000
-5.000360488891602 -6.892773628234863 0.276537239551544 0.000000000000000
-5.000274658203125 -8.080986976623535 1.079358458518982 0.000000000000000
-4.998512744903564 -6.973618984222412 0.642122030258179 0.000000000000000
-4.997546672821045 -11.957572937011719 1.070052385330200 0.000000000000000
-4.990462779998779 -8.737868309020996 0.520312249660492 0.000000000000000
-4.989184856414795 -6.305630683898926 0.230215221643448 0.000000000000000
-4.987705707550049 -8.598711013793945 0.839975178241730 0.000000000000000
-4.984980106353760 -5.584414958953857 0.185561165213585 0.000000000000000
-4.979617595672607 -8.952489852905273 0.569152772426605 0.000000000000000
-4.976754665374756 -10.599184036254883 0.245277643203735 0.000000000000000
-4.974251747131348 -8.467570304870605 0.734962582588196 0.000000000000000
-4.959543704986572 -7.288988590240479 0.838039517402649 0.000000000000000
-4.949326515197754 -9.089784622192383 0.356000125408173 0.000000000000000
-4.948777675628662 -9.032389640808105 0.512726783752441 0.000000000000000
-4.946937561035156 -7.014809131622314 0.377774089574814 0.000000000000000
-4.941825866699219 -6.853523731231689 0.209450185298920 0.000000000000000
-4.940592765808105 -3.940919160842896 0.229528814554214 0.000000000000000
-4.937290668487549 -8.773733139038086 0.501191496849060 0.000000000000000
-4.934788703918457 -10.285409927368164 0.524018585681915 0.000000000000000
-4.928041458129883 -6.922142028808594 0.770311176776886 0.000000000000000
-4.924775600433350 -5.910480022430420 0.731297373771667 0.000000000000000
-4.923647403717041 -7.726791858673096 0.632648169994354 0.000000000000000
-4.917601108551025 -12.001088142395020 1.232834219932556 0.000000000000000
-4.917340755462646 -7.956882953643799 0.645874321460724 0.000000000000000
-4.916810035705566 -8.540936470031738 0.642481267452240 0.000000000000000
-4.914779186248779 -11.091876029968262 0.697400689125061 0.000000000000000
-4.914621353149414 -10.818660736083984 0.180444061756134 0.000000000000000
-4.911818981170654 -11.379961013793945 1.649407505989075 0.000000000000000
-4.907353878021240 -10.542107582092285 0.422327220439911 0.000000000000000
-4.904542922973633 -6.320165157318115 0.760443329811096 0.000000000000000
-4.902832508087158 -8.502922058105469 0.639879107475281 0.000000000000000
-4.900402545928955 -6.732957839965820 0.094476141035557 0.000000000000000
-4.896214485168457 -11.757194519042969 1.356584668159485 0.000000000000000
-4.891071796417236 -8.340299606323242 0.611689567565918 0.000000000000000
-4.887634277343750 -8.354808807373047 0.631031632423401 0.000000000000000
-4.884731292724609 -8.305224418640137 0.795544862747192 0.000000000000000
-4.882461071014404 -8.259410858154297 0.164124161005020 0.000000000000000
-4.881656169891357 -14.040296554565430 0.311371922492981 0.000000000000000
-4.878681659698486 -3.085247278213501 1.546702742576599 0.000000000000000
-4.868686676025391 -10.951707839965820 0.596656501293182 0.000000000000000
-4.868584632873535 -8.461260795593262 0.523563206195831 0.000000000000000
-4.868064403533936 -7.929039001464844 1.056787133216858 0.000000000000000
-4.866594791412354 -8.457803726196289 1.298525929450989 0.000000000000000
-4.866461753845215 -8.640457153320312 0.474596112966537 0.000000000000000
-4.865735530853271 -6.745516777038574 0.334057062864304 0.000000000000000
-4.862269401550293 -12.366371154785156 0.329390913248062 0.000000000000000
-4.862033367156982 -7.865547180175781 1.132107138633728 0.000000000000000
-4.860805988311768 -8.615287780761719 0.283218532800674 0.000000000000000
-4.858242511749268 -3.597667455673218 0.475775986909866 0.000000000000000
-4.857990741729736 -9.560730934143066 0.410106271505356 0.000000000000000
-4.850595474243164 -11.763182640075684 1.355313658714294 0.000000000000000
-4.849035263061523 -8.062500000000000 0.819814801216125 0.000000000000000
-4.846651554107666 -4.353539943695068 0.525317251682281 0.000000000000000
-4.845325946807861 -3.705336093902588 0.057490296661854 0.000000000000000
-4.843178749084473 -10.371577262878418 0.349727094173431 0.000000000000000
-4.842225551605225 -3.872143983840942 0.589353024959564 0.000000000000000
-4.837960243225098 -3.248278617858887 1.212075710296631 0.000000000000000
-4.836659431457520 -7.842236042022705 0.511904656887054 0.000000000000000
-4.831861495971680 -8.884017944335938 0.620308935642242 0.000000000000000
-4.830511569976807 -8.589949607849121 0.756570935249329 0.000000000000000
-4.827707290649414 -10.397555351257324 0.086035557091236 0.000000000000000
-4.826287746429443 -7.532745838165283 1.529209613800049 0.000000000000000
-4.822737693786621 -10.995890617370605 2.497462749481201 0.000000000000000
-4.821991920471191 -6.593002796173096 0.249560743570328 0.000000000000000
-4.820313930511475 -7.955836772918701 0.427290827035904 0.000000000000000
-4.817968845367432 -10.886726379394531 2.476284027099609 0.000000000000000
-4.817422389984131 -8.476407051086426 0.447847753763199 1.000000000000000
-4.816740512847900 -8.524666786193848 0.111084349453449 0.000000000000000
-4.815763473510742 -8.018262863159180 0.447634756565094 0.000000000000000
-4.815207004547119 -3.835954666137695 0.211757495999336 0.000000000000000
-4.814679622650146 -8.130812644958496 0.898223996162415 0.000000000000000
-4.811464309692383 -4.909191131591797 0.170395106077194 0.000000000000000
-4.809183120727539 -6.911267757415771 0.370563328266144 0.000000000000000
-4.806451797485352 7.899633884429932 1.132107138633728 0.000000000000000
