# This PCD file was generated using the MATLAB® pcwrite function
# from Computer Vision Toolbox®.
# .PCD v.7 - Point Cloud Data file format
VERSION .7
FIELDS x y z intensity
SIZE 8 8 8 8
TYPE F F F F
COUNT 1 1 1 1
WIDTH 642
HEIGHT 1
VIEWPOINT 0 0 0 1 0 0 0
POINTS 642
DATA ascii
-9.587090492248535 -11.352025032043457 0.197104722261429 0.000000000000000
-9.582499504089355 0.677131652832031 1.998132944107056 0.000000000000000
-9.576822280883789 -9.447989463806152 2.299543142318726 0.000000000000000
-9.570672035217285 -9.062565803527832 1.252895712852478 0.000000000000000
-9.570381164550781 -10.141295433044434 3.736311912536621 0.000000000000000
-9.564034461975098 2.634013652801514 1.695677161216736 1.000000000000000
-9.562981605529785 -7.647154331207275 1.499106168746948 0.000000000000000
-9.557014465332031 -8.074585914611816 1.057210087776184 0.000000000000000
-9.551989555358887 -11.056722640991211 0.137712821364403 0.000000000000000
-9.551531791687012 -8.301262855529785 0.483934581279755 0.000000000000000
-9.549644470214844 -8.297867774963379 0.654159903526306 0.000000000000000
-9.531567573547363 -8.290341377258301 0.701844155788422 0.000000000000000
-9.531537055969238 -11.518374443054199 1.355357646942139 0.000000000000000
-9.526360511779785 1.175091981887817 1.996503949165344 0.000000000000000
-9.519946098327637 -6.816614627838135 1.558125495910645 0.000000000000000
-9.516454696655273 -10.132577896118164 0.558313548564911 0.000000000000000
-9.513459205627441 -9.162042617797852 0.048409741371870 0.000000000000000
-9.499797821044922 -9.124629974365234 1.952138781547546 0.000000000000000
-9.491655349731445 -9.813120841979980 0.312201052904129 0.000000000000000
-9.462456703186035 -7.079852581024170 0.998607218265533 0.000000000000000
-9.455813407897949 -8.693241119384766 0.293728709220886 0.000000000000000
-9.455374717712402 -1.075297832489014 1.979397892951965 1.000000000000000
-9.452944755554199 -8.115901947021484 1.525355219841003 0.000000000000000
-9.452201843261719 -9.501161575317383 0.692992329597473 0.000000000000000
-9.449053764343262 -9.063217163085938 1.940410733222961 0.000000000000000
-9.446925163269043 3.803767919540405 1.246824741363525 1.000000000000000
-9.445373535156250 -10.174397468566895 0.504208445549011 0.000000000000000
-9.444913864135742 -10.932779312133789 0.358137011528015 0.000000000000000
-9.443809509277344 -7.866609573364258 0.470024883747101 0.000000000000000
-9.436645507812500 -8.317770004272461 1.062935709953308 0.000000000000000
-9.429080009460449 -6.900540828704834 0.604173600673676 0.000000000000000
-9.425911903381348 -8.324106216430664 1.195360898971558 0.000000000000000
-9.414483070373535 -8.708145141601562 1.058861374855042 0.000000000000000
-9.408253669738770 -8.229923248291016 0.839006185531616 0.000000000000000
-9.398289680480957 -8.640357017517090 1.078765153884888 0.000000000000000
-9.397185325622559 -6.000744819641113 0.705387711524963 0.000000000000000
-9.394458770751953 -8.516579627990723 1.687397718429565 0.000000000000000
-9.386005401611328 -8.347360610961914 0.940047621726990 0.000000000000000
-9.379138946533203 -11.680318832397461 0.601655840873718 0.000000000000000
-9.370710372924805 -9.624009132385254 0.307171463966370 0.000000000000000
-9.362505912780762 -11.075897216796875 0.387368887662888 0.000000000000000
-9.360584259033203 1.490609407424927 1.620193958282471 1.000000000000000
-9.360433578491211 -7.383939266204834 1.133283853530884 0.000000000000000
-9.351989746093750 -8.418797492980957 1.063272476196289 0.000000000000000
-9.345159530639648 -11.642997741699219 0.657059550285339 0.000000000000000
-9.344149589538574 -10.822248458862305 1.042456507682800 0.000000000000000
-9.337842941284180 -9.534156799316406 0.536000251770020 0.000000000000000
-9.337008476257324 -7.720955371856689 0.067668162286282 0.000000000000000
-9.335499763488770 -10.888839721679688 0.383096843957901 0.000000000000000
-9.335438728332520 -8.345088005065918 1.666292071342468 0.000000000000000
-9.325706481933594 -9.791586875915527 0.959779560565948 0.000000000000000
-9.323176383972168 -8.288568496704102 1.527299523353577 0.000000000000000
-9.319401741027832 -8.539958000183105 1.346416711807251 0.000000000000000
-9.318476676940918 -7.177228450775146 0.993892073631287 0.000000000000000
-9.317779541015625 -8.286684036254883 1.029567480087280 0.000000000000000
-9.309009552001953 -10.267130851745605 2.368960857391357 0.000000000000000
-9.287076950073242 -7.575437068939209 0.274067550897598 0.000000000000000
-9.263112068176270 -8.959672927856445 1.909917593002319 0.000000000000000
-9.251661300659180 -9.890694618225098 0.674221813678741 0.000000000000000
-9.251534461975098 -8.537370681762695 1.340909004211426 0.000000000000000
-9.251132011413574 -8.336191177368164 1.128922939300537 0.000000000000000
-9.247757911682129 -11.255201339721680 0.613089501857758 0.000000000000000
-9.236429214477539 -8.608287811279297 0.871820032596588 0.000000000000000
-9.221588134765625 -8.533904075622559 0.625494897365570 0.000000000000000
-9.220221519470215 -8.528457641601562 0.843024373054504 0.000000000000000
-9.213871002197266 -5.985386848449707 0.737478852272034 0.000000000000000
-9.210021972656250 -10.515338897705078 0.776621758937836 0.000000000000000
-9.200126647949219 -11.197230339050293 0.833070158958435 0.000000000000000
-9.197834014892578 -7.502641677856445 1.002985596656799 0.000000000000000
-9.196170806884766 -11.370926856994629 0.587368965148926 0.000000000000000
-9.183624267578125 -10.491109848022461 1.263989329338074 0.000000000000000
-9.182922363281250 -7.186881542205811 1.427650690078735 0.000000000000000
-9.182009696960449 -11.172797203063965 0.803470671176910 0.000000000000000
-9.173989295959473 -8.809226036071777 1.208987593650818 0.000000000000000
-9.173069000244141 -9.478443145751953 0.682044863700867 0.000000000000000
-9.155166625976562 -10.603370666503906 0.805293500423431 0.000000000000000
-9.149392127990723 -6.746499061584473 1.512748360633850 0.000000000000000
-9.147766113281250 -9.537871360778809 0.734240412712097 0.000000000000000
-9.139928817749023 -6.604543685913086 1.927518606185913 0.000000000000000
-9.133797645568848 -6.899820804595947 2.380979537963867 0.000000000000000
-9.106055259704590 -8.606352806091309 1.667347311973572 0.000000000000000
-9.104672431945801 -9.033128738403320 0.885597288608551 0.000000000000000
-9.101569175720215 -5.901823997497559 0.519149243831635 0.000000000000000
-9.080589294433594 -9.670525550842285 1.202595472335815 0.000000000000000
-9.062626838684082 3.479178905487061 1.188493728637695 1.000000000000000
-9.058072090148926 -7.760418415069580 0.066618174314499 0.000000000000000
-9.053425788879395 -11.425862312316895 0.641582846641541 0.000000000000000
-9.044345855712891 -11.172027587890625 0.632613301277161 0.000000000000000
-9.037322044372559 -8.848762512207031 1.102114558219910 0.000000000000000
-9.032886505126953 -9.079674720764160 0.465155184268951 0.000000000000000
-9.013349533081055 -9.675112724304199 0.989602327346802 0.000000000000000
-9.006854057312012 -8.701464653015137 0.334502190351486 0.000000000000000
-8.998627662658691 -9.514451026916504 0.727583587169647 0.000000000000000
-8.991790771484375 -8.334653854370117 1.501050591468811 0.000000000000000
-8.989959716796875 -7.169398307800293 0.927181720733643 0.000000000000000
-8.976282119750977 -9.635323524475098 1.251760125160217 0.000000000000000
-8.971401214599609 -7.384415626525879 1.104516506195068 0.000000000000000
-8.959147453308105 -5.868065834045410 0.904977202415466 0.000000000000000
-8.956902503967285 -8.517033576965332 0.448895066976547 0.000000000000000
-8.942317008972168 -7.412986755371094 2.416005849838257 0.000000000000000
-8.939376831054688 -9.700413703918457 0.479092419147491 0.000000000000000
-8.933593750000000 -7.087281227111816 1.690016150474548 0.000000000000000
-8.929598808288574 -7.706192970275879 0.632603168487549 0.000000000000000
-8.928232192993164 -5.840024471282959 0.819031655788422 0.000000000000000
-8.927809715270996 -7.601387500762939 0.583728909492493 0.000000000000000
-8.925894737243652 3.030279397964478 1.960662841796875 0.000000000000000
-8.924398422241211 -7.037452220916748 0.938394069671631 0.000000000000000
-8.907193183898926 6.593864917755127 0.915024757385254 1.000000000000000
-8.905713081359863 -11.844498634338379 0.709217131137848 0.000000000000000
-8.903601646423340 -10.312012672424316 0.573394298553467 0.000000000000000
-8.902620315551758 -11.636567115783691 2.504426240921021 0.000000000000000
-8.901858329772949 -8.354725837707520 1.624608397483826 0.000000000000000
-8.899042129516602 -8.657568931579590 0.331618547439575 0.000000000000000
-8.892243385314941 -5.909780502319336 0.387774497270584 0.000000000000000
-8.884446144104004 -11.746915817260742 0.903402864933014 0.000000000000000
-8.878310203552246 -8.721951484680176 0.595635354518890 0.000000000000000
-8.873764991760254 -6.983967304229736 1.502723097801208 0.000000000000000
-8.871891021728516 -9.231505393981934 0.465009987354279 0.000000000000000
-8.860052108764648 -12.044307708740234 0.485563069581985 0.000000000000000
-8.850900650024414 -6.766536712646484 0.576082110404968 0.000000000000000
-8.849652290344238 -5.908456802368164 0.488778114318848 0.000000000000000
-8.841634750366211 -6.727721214294434 2.310926675796509 0.000000000000000
-8.841541290283203 -5.663539409637451 0.038484428077936 0.000000000000000
-8.827363967895508 -7.047802448272705 0.954486608505249 0.000000000000000
-8.809128761291504 -5.625230789184570 0.018242172896862 0.000000000000000
-8.806246757507324 -7.446073055267334 1.004889488220215 0.000000000000000
-8.806019783020020 -12.012535095214844 1.057201862335205 0.000000000000000
-8.799634933471680 -9.637507438659668 1.183094024658203 0.000000000000000
-8.796487808227539 -8.530941963195801 0.233145177364349 0.000000000000000
-8.790086746215820 -6.250020027160645 0.911376416683197 0.000000000000000
-8.765445709228516 -8.342551231384277 1.022519946098328 0.000000000000000
-8.765416145324707 -5.254100799560547 2.738305807113647 0.000000000000000
-8.759757995605469 -8.665781021118164 0.589707672595978 0.000000000000000
-8.721662521362305 -11.856181144714355 0.931172370910645 0.000000000000000
-8.718079566955566 -7.313781738281250 0.610323905944824 0.000000000000000
-8.691457748413086 -8.879145622253418 0.522934257984161 0.000000000000000
-8.683162689208984 -8.206666946411133 0.089667901396751 0.000000000000000
-8.678867340087891 -7.042567253112793 2.324774265289307 0.000000000000000
-8.676500320434570 -9.450841903686523 0.515292227268219 0.000000000000000
-8.676302909851074 -5.502329349517822 1.166934967041016 1.000000000000000
-8.676265716552734 -6.976891994476318 0.768766760826111 0.000000000000000
-8.676236152648926 -6.377758026123047 2.885314941406250 0.000000000000000
-8.674694061279297 -9.858916282653809 0.325525045394897 0.000000000000000
-8.660691261291504 -7.060467243194580 0.922595143318176 0.000000000000000
-8.660296440124512 -7.077776432037354 2.326403617858887 0.000000000000000
-8.659554481506348 -8.826804161071777 0.259015858173370 0.000000000000000
-8.657236099243164 -6.572153568267822 0.918449223041534 0.000000000000000
-8.657095909118652 -8.737856864929199 0.304907143115997 0.000000000000000
-8.655674934387207 -8.460886955261230 0.439603567123413 0.000000000000000
-8.649060249328613 -9.811123847961426 0.148384734988213 0.000000000000000
-8.644787788391113 -7.141938209533691 0.385701149702072 0.000000000000000
-8.643030166625977 -10.519203186035156 2.327175378799438 0.000000000000000
-8.633082389831543 -5.309447288513184 0.817231595516205 0.000000000000000
-8.611216545104980 -7.329238414764404 0.737201094627380 0.000000000000000
-8.604699134826660 -8.852116584777832 0.519570231437683 0.000000000000000
-8.599732398986816 -6.156351566314697 0.709887087345123 0.000000000000000
-8.593802452087402 -7.312347888946533 0.953476190567017 0.000000000000000
-8.593781471252441 -8.698816299438477 0.444104164838791 0.000000000000000
-8.583178520202637 -6.951514720916748 0.252577424049377 0.000000000000000
-8.582878112792969 -7.147939682006836 0.233968734741211 0.000000000000000
-8.560433387756348 -6.883746623992920 0.928216338157654 0.000000000000000
-8.550684928894043 -10.490901947021484 1.012887120246887 0.000000000000000
-8.539940834045410 -7.411105155944824 0.911750137805939 0.000000000000000
-8.534394264221191 -5.511856079101562 0.095754332840443 0.000000000000000
-8.529135704040527 -6.778548240661621 0.949332416057587 0.000000000000000
-8.517161369323730 -5.701311111450195 0.372240275144577 0.000000000000000
-8.510871887207031 -12.015444755554199 0.903158009052277 0.000000000000000
-8.499828338623047 -7.098396301269531 0.964957773685455 0.000000000000000
-8.499627113342285 -10.269175529479980 1.975594878196716 0.000000000000000
-8.486523628234863 -8.367678642272949 0.845931470394135 0.000000000000000
-8.484406471252441 -8.970753669738770 0.116375431418419 0.000000000000000
-8.477636337280273 -7.314603328704834 0.578973889350891 0.000000000000000
-8.477249145507812 -11.916315078735352 1.325744152069092 0.000000000000000
-8.476663589477539 -8.351541519165039 0.821671128273010 0.000000000000000
-8.476034164428711 -6.767299175262451 0.748927652835846 0.000000000000000
-8.475643157958984 -11.568632125854492 1.300103187561035 0.000000000000000
-8.470367431640625 -5.629401683807373 0.525889217853546 0.000000000000000
-8.458667755126953 -0.932052195072174 1.770054221153259 1.000000000000000
-8.449831008911133 -6.615519523620605 0.886059939861298 0.000000000000000
-8.443995475769043 -6.700310707092285 0.785914480686188 0.000000000000000
-8.440516471862793 -6.931641101837158 0.754162967205048 0.000000000000000
-8.439317703247070 -7.231839656829834 1.478979349136353 0.000000000000000
-8.438987731933594 -12.117728233337402 2.188459396362305 0.000000000000000
-8.433148384094238 -9.836345672607422 0.545304834842682 0.000000000000000
-8.430640220642090 -12.105740547180176 0.592505812644958 0.000000000000000
-8.418372154235840 -11.083567619323730 2.379070281982422 0.000000000000000
-8.412508010864258 -7.309788227081299 0.404760479927063 0.000000000000000
-8.401898384094238 -9.592680931091309 0.905121147632599 0.000000000000000
-8.399107933044434 -6.952296257019043 0.605764925479889 0.000000000000000
-8.396595001220703 -7.449082851409912 0.407664090394974 0.000000000000000
-8.396250724792480 -10.511027336120605 1.219569087028503 0.000000000000000
-8.390463829040527 -7.189975261688232 0.762980341911316 0.000000000000000
-8.387422561645508 -11.714566230773926 2.996792316436768 0.000000000000000
-8.384702682495117 -7.141494750976562 0.633124113082886 0.000000000000000
-8.378869056701660 -8.861029624938965 0.138356283307076 0.000000000000000
-8.373266220092773 3.958381891250610 1.926451086997986 1.000000000000000
-8.368839263916016 -7.262619972229004 1.258574366569519 0.000000000000000
-8.366777420043945 -9.020761489868164 1.637271761894226 0.000000000000000
-8.350794792175293 -9.467453956604004 0.312936216592789 0.000000000000000
-8.347815513610840 -6.110575199127197 0.236574143171310 0.000000000000000
-8.339591026306152 -11.734079360961914 1.077368021011353 0.000000000000000
-8.339570045471191 -8.387449264526367 0.816711366176605 0.000000000000000
-8.337872505187988 -10.516757011413574 1.216679930686951 0.000000000000000
-8.328607559204102 -9.447616577148438 0.918257534503937 0.000000000000000
-8.326619148254395 -8.082595825195312 0.421456128358841 0.000000000000000
-8.322814941406250 -9.446366310119629 0.747972011566162 0.000000000000000
-8.321069717407227 -7.703775882720947 0.085104949772358 0.000000000000000
-8.296640396118164 -6.903183937072754 0.870277702808380 0.000000000000000
-8.296504974365234 -6.711668968200684 1.212077617645264 0.000000000000000
-8.278672218322754 -7.378881454467773 0.701599359512329 0.000000000000000
-8.275124549865723 -7.089634895324707 0.395759344100952 0.000000000000000
-8.269025802612305 -9.073534011840820 0.304312378168106 0.000000000000000
-8.254181861877441 -6.972362518310547 0.392420232295990 0.000000000000000
-8.252417564392090 -11.104598999023438 1.254238486289978 0.000000000000000
-8.246306419372559 -9.288690567016602 0.522766053676605 0.000000000000000
-8.226704597473145 -11.835796356201172 0.634372055530548 0.000000000000000
-8.214008331298828 -7.087141990661621 0.394017219543457 0.000000000000000
-8.211092948913574 -6.946775436401367 0.784169256687164 0.000000000000000
-8.208879470825195 -6.291615009307861 2.151271581649780 0.000000000000000
-8.197172164916992 -5.573719501495361 1.319103837013245 0.000000000000000
-8.158221244812012 -8.707701683044434 0.295787692070007 0.000000000000000
-8.156884193420410 -8.684985160827637 1.038223862648010 0.000000000000000
-8.155969619750977 -9.657442092895508 0.946018040180206 0.000000000000000
-8.150042533874512 -9.928383827209473 2.671780109405518 0.000000000000000
-8.149269104003906 -8.437639236450195 0.832620799541473 0.000000000000000
-8.137126922607422 -12.032961845397949 0.723147630691528 0.000000000000000
-8.131403923034668 -9.696813583374023 1.202931284904480 0.000000000000000
-8.129302978515625 -11.438198089599609 1.333898544311523 0.000000000000000
-8.122059822082520 -7.994912624359131 0.589301645755768 0.000000000000000
-8.117811203002930 -9.959806442260742 2.672594547271729 0.000000000000000
-8.113145828247070 -9.463097572326660 1.130006432533264 0.000000000000000
-8.104123115539551 -7.767232894897461 0.775104284286499 0.000000000000000
-8.089777946472168 -6.931820392608643 0.694525122642517 0.000000000000000
-8.084901809692383 -12.085752487182617 0.667917251586914 0.000000000000000
-8.076200485229492 -6.100895404815674 0.835700631141663 0.000000000000000
-8.066294670104980 -8.711416244506836 0.682479321956635 0.000000000000000
-8.047358512878418 -8.676376342773438 0.999954402446747 0.000000000000000
-8.040673255920410 -9.725724220275879 1.199524641036987 0.000000000000000
-8.037362098693848 -9.122377395629883 0.909896790981293 0.000000000000000
-8.035100936889648 -12.407081604003906 0.735876381397247 0.000000000000000
-8.011453628540039 -6.231357574462891 0.884400010108948 0.000000000000000
-8.006804466247559 -11.100075721740723 2.028371095657349 0.000000000000000
-8.005572319030762 -9.210006713867188 2.085898637771606 0.000000000000000
-8.003497123718262 -6.478330612182617 0.691135346889496 0.000000000000000
-8.002619743347168 -9.748792648315430 0.943928420543671 0.000000000000000
-7.991215229034424 -5.474566936492920 1.289028286933899 0.000000000000000
-7.988664150238037 -7.170585155487061 0.844847619533539 0.000000000000000
-7.980318069458008 -8.511862754821777 1.016695380210876 0.000000000000000
-7.979609012603760 -10.783431053161621 0.822833776473999 0.000000000000000
-7.978167533874512 -9.178479194641113 0.511833071708679 0.000000000000000
-7.977102279663086 -8.261109352111816 0.306733816862106 0.000000000000000
-7.976374149322510 -8.674846649169922 0.677429080009460 0.000000000000000
-7.973320484161377 -11.918953895568848 1.438904881477356 0.000000000000000
-7.960657119750977 -6.670790195465088 0.197610333561897 0.000000000000000
-7.959212779998779 -12.705799102783203 0.832982242107391 0.000000000000000
-7.958516120910645 -9.212227821350098 1.060793876647949 0.000000000000000
-7.957211971282959 -11.909259796142578 1.525628209114075 0.000000000000000
-7.939079284667969 -7.773433685302734 0.446265578269958 0.000000000000000
-7.933177947998047 -9.864066123962402 0.922911405563354 0.000000000000000
-7.926332950592041 -7.864048957824707 1.485838651657104 0.000000000000000
-7.923161506652832 -11.555039405822754 1.270128607749939 0.000000000000000
-7.918308734893799 -8.200222969055176 0.129326134920120 0.000000000000000
-7.909266471862793 -9.421220779418945 0.873119056224823 0.000000000000000
-7.908943176269531 -9.356324195861816 0.138991564512253 0.000000000000000
-7.903334140777588 -8.902363777160645 0.867938101291656 0.000000000000000
-7.894340515136719 -8.008697509765625 0.646438598632812 0.000000000000000
-7.890377044677734 -6.572614192962646 0.550769627094269 0.000000000000000
-7.884892940521240 -10.841480255126953 2.291455745697021 0.000000000000000
-7.880588054656982 -11.159861564636230 2.335263013839722 0.000000000000000
-7.860449314117432 -8.030191421508789 1.920778989791870 0.000000000000000
-7.847969532012939 -11.360154151916504 1.251710534095764 0.000000000000000
-7.840347290039062 -9.960441589355469 1.149146795272827 0.000000000000000
-7.830609798431396 -8.877710342407227 0.657687664031982 0.000000000000000
-7.825360774993896 -9.002682685852051 0.685693204402924 0.000000000000000
-7.819829940795898 -8.255951881408691 0.960885822772980 0.000000000000000
-7.817796230316162 -10.003443717956543 1.150952458381653 0.000000000000000
-7.809535980224609 -12.746005058288574 1.989208698272705 0.000000000000000
-7.801006793975830 -8.469871520996094 0.973010540008545 0.000000000000000
-7.785249710083008 -6.529822349548340 0.682027339935303 0.000000000000000
-7.775836467742920 -7.978774070739746 0.576082110404968 0.000000000000000
-7.773982048034668 -6.296146869659424 1.331239581108093 0.000000000000000
-7.771133899688721 -9.062257766723633 0.847347438335419 0.000000000000000
-7.766082763671875 -7.976006984710693 0.940677940845490 0.000000000000000
-7.759459495544434 -8.378281593322754 0.107629366219044 0.000000000000000
-7.755158424377441 -10.278744697570801 0.715379536151886 0.000000000000000
-7.748166084289551 -9.559999465942383 1.823716282844543 0.000000000000000
-7.746507167816162 -4.820274353027344 0.665205955505371 0.000000000000000
-7.740696430206299 -12.174832344055176 0.607202529907227 0.000000000000000
-7.737721920013428 -7.964659690856934 0.659724175930023 0.000000000000000
-7.730835437774658 -6.671667098999023 0.862877428531647 0.000000000000000
-7.729917049407959 -7.562828540802002 0.746723234653473 0.000000000000000
-7.727726459503174 -11.513955116271973 0.690331578254700 0.000000000000000
-7.722788333892822 -7.608794212341309 0.916091561317444 0.000000000000000
-7.718143939971924 -9.139015197753906 1.137069106101990 0.000000000000000
-7.713328361511230 -11.419137001037598 2.355481624603271 0.000000000000000
-7.705103874206543 -9.113241195678711 0.847064256668091 0.000000000000000
-7.699775218963623 -12.178897857666016 0.745044171810150 0.000000000000000
-7.697171211242676 -7.872726917266846 0.959402143955231 0.000000000000000
-7.691354751586914 3.668915033340454 1.772498011589050 1.000000000000000
-7.689283370971680 -3.603889465332031 0.031124737113714 1.000000000000000
-7.688893795013428 -12.730451583862305 1.141745328903198 0.000000000000000
-7.680007934570312 -12.845583915710449 1.062299609184265 0.000000000000000
-7.665374279022217 -10.165652275085449 1.154202699661255 0.000000000000000
-7.662512302398682 -7.241519451141357 0.524858832359314 0.000000000000000
-7.659119606018066 -7.987412929534912 0.465746194124222 0.000000000000000
-7.648224830627441 -8.619859695434570 0.862431704998016 0.000000000000000
-7.647076129913330 -11.798441886901855 0.672886252403259 0.000000000000000
-7.640432834625244 -6.778249740600586 0.213947772979736 0.000000000000000
-7.638457298278809 -7.810495853424072 0.649048984050751 0.000000000000000
-7.625168800354004 -8.841953277587891 1.017389774322510 0.000000000000000
-7.623184204101562 -7.733613491058350 0.791731715202332 0.000000000000000
-7.619123935699463 -8.322977066040039 1.381472110748291 0.000000000000000
-7.617112159729004 -8.222278594970703 1.372236371040344 0.000000000000000
-7.613694190979004 -10.566751480102539 0.322848677635193 0.000000000000000
-7.609168052673340 -8.515772819519043 0.854670166969299 0.000000000000000
-7.591716766357422 -10.677061080932617 1.941583395004272 0.000000000000000
-7.584554195404053 -7.155325889587402 0.519091129302979 0.000000000000000
-7.581612110137939 -9.288030624389648 0.666119515895844 0.000000000000000
-7.578676223754883 -9.050503730773926 0.519527316093445 0.000000000000000
-7.571606159210205 -11.345421791076660 0.469166606664658 0.000000000000000
-7.571584701538086 -7.149585723876953 0.218136250972748 0.000000000000000
-7.561601161956787 -7.872502326965332 1.452597141265869 0.000000000000000
-7.558311939239502 -8.390235900878906 1.673596858978271 0.000000000000000
-7.556135654449463 -8.397240638732910 0.845415890216827 0.000000000000000
-7.547823905944824 -12.645532608032227 1.102145314216614 0.000000000000000
-7.547358989715576 -7.143176555633545 0.077990353107452 0.000000000000000
-7.543590545654297 -7.689286231994629 0.723013281822205 0.000000000000000
-7.532371044158936 3.528740406036377 1.730140447616577 1.000000000000000
-7.529413700103760 -8.131597518920898 0.466419011354446 0.000000000000000
-7.525590896606445 -12.174987792968750 0.877934277057648 0.000000000000000
-7.524827480316162 -12.178031921386719 1.181961774826050 0.000000000000000
-7.519472599029541 -9.413414001464844 0.878409206867218 0.000000000000000
-7.517271995544434 -12.654490470886230 0.987948477268219 0.000000000000000
-7.509607315063477 -7.565390110015869 0.777188539505005 0.000000000000000
-7.502775669097900 -10.536385536193848 1.916954398155212 0.000000000000000
-7.502501964569092 -7.920925617218018 0.753336369991302 0.000000000000000
-7.501187324523926 -10.872778892517090 2.747534751892090 0.000000000000000
-7.496851921081543 -11.291794776916504 3.631748914718628 0.000000000000000
-7.491772651672363 -10.002078056335449 0.694299817085266 0.000000000000000
-7.491327285766602 -12.719779968261719 1.964409589767456 0.000000000000000
-7.490574836730957 -7.963830471038818 0.923837959766388 0.000000000000000
-7.489108562469482 -6.786421298980713 0.658875048160553 0.000000000000000
-7.481880187988281 -7.735279083251953 0.909355640411377 0.000000000000000
-7.480254650115967 -8.663514137268066 1.956498742103577 0.000000000000000
-7.472574234008789 -12.973715782165527 0.918341279029846 0.000000000000000
-7.471340179443359 -8.420503616333008 1.070071339607239 0.000000000000000
-7.469823360443115 -7.626864910125732 0.930234611034393 0.000000000000000
-7.468451023101807 -10.065820693969727 0.503413200378418 0.000000000000000
-7.462503433227539 -7.202431201934814 0.716137945652008 0.000000000000000
-7.435582160949707 -7.918647766113281 1.856753110885620 0.000000000000000
-7.434690952301025 -12.655928611755371 0.872040987014771 0.000000000000000
-7.428227424621582 -6.776248931884766 0.655492246150970 0.000000000000000
-7.424011230468750 -7.567397594451904 0.385016083717346 0.000000000000000
-7.421451568603516 -12.601135253906250 0.334422737360001 0.000000000000000
-7.399827003479004 -6.941131114959717 0.212523683905602 0.000000000000000
-7.395663261413574 -9.328326225280762 0.684315860271454 0.000000000000000
-7.391764640808105 -7.927250862121582 1.852709293365479 0.000000000000000
-7.390384197235107 -11.967916488647461 1.188561558723450 0.000000000000000
-7.359650135040283 -11.658031463623047 0.765970885753632 0.000000000000000
-7.350696086883545 -12.726135253906250 0.675075471401215 0.000000000000000
-7.350044727325439 -10.100151062011719 0.117732584476471 0.000000000000000
-7.350034236907959 -13.060725212097168 0.717248201370239 0.000000000000000
-7.349852561950684 -7.140935420989990 0.707596063613892 0.000000000000000
-7.349112987518311 -8.942502975463867 0.821575820446014 0.000000000000000
-7.347554206848145 -9.198193550109863 0.676740407943726 0.000000000000000
-7.344325065612793 -12.828065872192383 0.650552332401276 0.000000000000000
-7.326875209808350 -12.980852127075195 0.426773875951767 0.000000000000000
-7.324421405792236 -12.934280395507812 0.768591463565826 0.000000000000000
-7.323051929473877 -8.857713699340820 0.505809247493744 0.000000000000000
-7.317740917205811 -12.922483444213867 0.996788620948792 0.000000000000000
-7.305025577545166 -12.211618423461914 0.927681505680084 0.000000000000000
-7.301255226135254 -11.548550605773926 0.496223598718643 0.000000000000000
-7.298177242279053 -7.455777168273926 0.945825159549713 0.000000000000000
-7.286905288696289 -10.309209823608398 0.701400399208069 0.000000000000000
-7.281867504119873 -10.226157188415527 0.504215836524963 0.000000000000000
-7.281748294830322 -11.748381614685059 0.847812652587891 0.000000000000000
-7.280149459838867 -7.340883255004883 2.150457143783569 0.000000000000000
-7.280138015747070 -6.273413181304932 1.091547012329102 0.000000000000000
-7.280081272125244 -9.320760726928711 0.885119438171387 0.000000000000000
-7.275287151336670 -7.284946441650391 2.141496896743774 0.000000000000000
-7.269783973693848 -12.948245048522949 1.226067304611206 0.000000000000000
-7.256407260894775 -12.789692878723145 1.566300392150879 0.000000000000000
-7.248986721038818 -8.169901847839355 2.271827459335327 0.000000000000000
-7.243080615997314 -12.576796531677246 0.276137024164200 0.000000000000000
-7.224372386932373 -6.875828266143799 0.228069543838501 0.000000000000000
-7.219923019409180 -7.433750629425049 1.535791993141174 0.000000000000000
-7.215102195739746 -8.739557266235352 0.498774379491806 0.000000000000000
-7.214784145355225 -3.525434017181396 0.399759829044342 1.000000000000000
-7.214155673980713 -7.521801948547363 1.544587969779968 0.000000000000000
-7.212566852569580 -6.874197959899902 0.074778288602829 0.000000000000000
-7.208189964294434 -12.602012634277344 1.546387910842896 0.000000000000000
-7.206647396087646 -6.955491542816162 0.075168535113335 0.000000000000000
-7.196933269500732 -8.226203918457031 2.273456573486328 0.000000000000000
-7.196621417999268 -10.992564201354980 2.732872486114502 0.000000000000000
-7.192285060882568 -5.303384780883789 0.755101978778839 0.000000000000000
-7.190918445587158 -12.807777404785156 0.759503066539764 0.000000000000000
-7.188432216644287 -8.320832252502441 1.629616498947144 0.000000000000000
-7.178824901580811 -10.348623275756836 0.796812832355499 0.000000000000000
-7.178700923919678 -12.652731895446777 0.696214556694031 0.000000000000000
-7.149655818939209 -9.923826217651367 0.561828672885895 0.000000000000000
-7.148309707641602 -12.297328948974609 1.119454503059387 0.000000000000000
-7.138350963592529 -13.140645980834961 1.003753542900085 0.000000000000000
-7.130951881408691 -12.649723052978516 0.443663567304611 0.000000000000000
-7.108214378356934 -11.393656730651855 0.849596917629242 0.000000000000000
-7.085947036743164 -12.257404327392578 0.405366510152817 0.000000000000000
-7.054607868194580 -7.668068408966064 0.098204731941223 0.000000000000000
-7.054001808166504 -9.693340301513672 0.297175407409668 0.000000000000000
-7.047245502471924 -8.952878952026367 0.830707550048828 0.000000000000000
-7.046252727508545 -13.074284553527832 0.767971754074097 0.000000000000000
-7.029509067535400 -13.179489135742188 0.829875826835632 0.000000000000000
-7.028261661529541 -9.049688339233398 0.636607944965363 0.000000000000000
-7.024232387542725 -10.050669670104980 0.586839437484741 0.000000000000000
-7.022240161895752 -11.453873634338379 0.487948328256607 0.000000000000000
-7.014718055725098 -4.683365821838379 2.260008096694946 0.000000000000000
-7.005804061889648 -12.951018333435059 0.676360249519348 0.000000000000000
-6.994646549224854 -9.792028427124023 0.390787392854691 0.000000000000000
-6.990478515625000 -10.988079071044922 0.924379050731659 0.000000000000000
-6.989101409912109 -5.800199031829834 0.911346375942230 0.000000000000000
-6.988113403320312 -11.495238304138184 0.721506118774414 0.000000000000000
-6.987641334533691 -5.622624874114990 0.446497946977615 0.000000000000000
-6.987199783325195 -9.723357200622559 0.734428107738495 0.000000000000000
-6.984063148498535 7.106536388397217 1.131723880767822 1.000000000000000
-6.982234001159668 -9.455261230468750 0.653027892112732 0.000000000000000
-6.975939273834229 -12.952476501464844 1.243122816085815 0.000000000000000
-6.974010467529297 -12.161553382873535 0.832898795604706 0.000000000000000
-6.964236736297607 -12.930747032165527 0.787701308727264 0.000000000000000
-6.961801052093506 -6.439479827880859 0.490361750125885 0.000000000000000
-6.961535453796387 -7.901318550109863 2.190370798110962 0.000000000000000
-6.961306095123291 1.934597134590149 1.935966610908508 1.000000000000000
-6.956964492797852 -3.318599939346313 0.028251232579350 1.000000000000000
-6.956765174865723 -10.545679092407227 2.627793312072754 0.000000000000000
-6.955612659454346 -6.315375804901123 1.954146385192871 0.000000000000000
-6.953477859497070 -9.283413887023926 0.823275029659271 0.000000000000000
-6.952814102172852 -12.554059982299805 1.528593897819519 0.000000000000000
-6.946476936340332 5.978709697723389 1.040987253189087 1.000000000000000
-6.941270828247070 -12.991116523742676 0.563265621662140 0.000000000000000
-6.937505722045898 6.055810928344727 1.045953035354614 1.000000000000000
-6.933746814727783 -6.160830974578857 0.676258742809296 0.000000000000000
-6.933210372924805 -12.763011932373047 0.751034259796143 0.000000000000000
-6.926310062408447 -13.095892906188965 1.051537752151489 0.000000000000000
-6.921676158905029 -8.741129875183105 0.971555233001709 0.000000000000000
-6.917477130889893 -11.790085792541504 0.627904593944550 0.000000000000000
-6.914622306823730 -11.555319786071777 0.514963865280151 0.000000000000000
-6.898815155029297 -11.112785339355469 2.720654010772705 0.000000000000000
-6.896814346313477 -5.779322147369385 1.022027492523193 0.000000000000000
-6.891957759857178 -5.897116184234619 0.731393337249756 0.000000000000000
-6.891900062561035 1.967239975929260 1.920437455177307 1.000000000000000
-6.889595985412598 -6.728442192077637 1.093804121017456 0.000000000000000
-6.880486488342285 8.925467491149902 0.930494606494904 1.000000000000000
-6.877734184265137 -13.050857543945312 0.479071557521820 0.000000000000000
-6.870621681213379 -13.194965362548828 1.027226686477661 0.000000000000000
-6.864760875701904 -5.804460525512695 1.332309722900391 0.000000000000000
-6.859858989715576 -6.625878334045410 0.529877901077271 0.000000000000000
-6.856258392333984 -9.527801513671875 0.200793847441673 0.000000000000000
-6.851713180541992 8.952594757080078 0.930823743343353 1.000000000000000
-6.841928005218506 -12.456235885620117 1.513765573501587 0.000000000000000
-6.839951515197754 -5.862963199615479 0.448486804962158 0.000000000000000
-6.837458610534668 -9.818057060241699 0.296580672264099 0.000000000000000
-6.836555480957031 -6.552358150482178 0.216547176241875 0.000000000000000
-6.830350875854492 -12.901382446289062 0.726727604866028 0.000000000000000
-6.824927330017090 -13.098281860351562 1.808260440826416 0.000000000000000
-6.822360038757324 -12.055531501770020 0.742928504943848 0.000000000000000
-6.820404052734375 -10.046854019165039 0.557790696620941 0.000000000000000
-6.818552970886230 -13.228828430175781 0.397515028715134 0.000000000000000
-6.816070556640625 -10.761569976806641 0.805904805660248 0.000000000000000
-6.813256740570068 -5.511757373809814 0.706638514995575 0.000000000000000
-6.810112953186035 -5.758253097534180 0.495484650135040 0.000000000000000
-6.808068752288818 -9.809401512145996 0.525506973266602 0.000000000000000
-6.804636001586914 -12.562892913818359 1.179657816886902 0.000000000000000
-6.801381587982178 -6.033881187438965 1.113149642944336 0.000000000000000
-6.796445846557617 -12.936541557312012 1.009040832519531 0.000000000000000
-6.796049594879150 -9.153557777404785 1.083698034286499 0.000000000000000
-6.790915489196777 -12.735368728637695 1.308409452438354 0.000000000000000
-6.786951065063477 -13.144970893859863 0.736472964286804 0.000000000000000
-6.780849456787109 -5.774221420288086 0.494818955659866 0.000000000000000
-6.775643348693848 -12.630696296691895 0.437922328710556 0.000000000000000
-6.771399974822998 -6.407428741455078 1.141342878341675 0.000000000000000
-6.769345283508301 4.853881835937500 1.732584118843079 1.000000000000000
-6.752288341522217 -11.880865097045898 0.627721011638641 0.000000000000000
-6.750812530517578 -4.473181724548340 2.169939041137695 0.000000000000000
-6.738387107849121 -5.585582256317139 1.297125458717346 0.000000000000000
-6.732361316680908 -12.604359626770020 0.931584835052490 0.000000000000000
-6.732172489166260 -6.056997776031494 0.468260377645493 0.000000000000000
-6.725646018981934 -9.595232963562012 0.493162810802460 0.000000000000000
-6.716562271118164 -9.591531753540039 2.435555696487427 0.000000000000000
-6.711628913879395 -5.962214946746826 0.637209773063660 0.000000000000000
-6.700439453125000 -5.133630275726318 1.033430576324463 1.000000000000000
-6.699516296386719 -12.890522003173828 1.778608798980713 0.000000000000000
-6.699208259582520 -10.659193038940430 0.602519094944000 0.000000000000000
-6.697814464569092 -12.602599143981934 1.123220562934875 0.000000000000000
-6.689398288726807 -6.688467979431152 0.089157074689865 0.000000000000000
-6.686132431030273 -12.225637435913086 0.774180889129639 0.000000000000000
-6.684065818786621 -11.907949447631836 1.817197561264038 0.000000000000000
-6.680081367492676 6.897886753082275 0.755718111991882 1.000000000000000
-6.680051803588867 -13.388751029968262 1.264341115951538 0.000000000000000
-6.674137592315674 -5.930160522460938 0.375759124755859 0.000000000000000
-6.673638343811035 -11.984254837036133 0.920710146427155 0.000000000000000
-6.662095069885254 -5.668684959411621 0.469150334596634 0.000000000000000
-6.662025928497314 9.095173835754395 0.821981608867645 1.000000000000000
-6.660765171051025 -7.154303073883057 0.851760149002075 0.000000000000000
-6.657376766204834 -10.978794097900391 0.565078258514404 0.000000000000000
-6.653081893920898 -10.423563003540039 0.591811001300812 0.000000000000000
-6.651815891265869 -9.551487922668457 0.109702788293362 0.000000000000000
-6.648318767547607 -5.650564670562744 0.434365898370743 0.000000000000000
-6.648118972778320 -11.529285430908203 1.417592883110046 0.000000000000000
-6.637277126312256 9.128051757812500 0.822854220867157 1.000000000000000
-6.633579730987549 -11.280488014221191 0.752265334129333 0.000000000000000
-6.632608890533447 -9.401628494262695 2.393198013305664 0.000000000000000
-6.630893230438232 -12.734568595886230 0.549050271511078 0.000000000000000
-6.623734474182129 -9.637235641479492 0.717285752296448 0.000000000000000
-6.620807170867920 -5.841545104980469 0.507555305957794 0.000000000000000
-6.617495059967041 -12.184867858886719 0.530249238014221 0.000000000000000
-6.613114833831787 -12.360333442687988 0.913889884948730 0.000000000000000
-6.612719535827637 -12.609273910522461 0.791044652462006 0.000000000000000
-6.610843181610107 -5.500523567199707 0.031520575284958 0.000000000000000
-6.607273578643799 -11.564552307128906 0.816956400871277 0.000000000000000
-6.605496406555176 -12.108302116394043 0.553979277610779 0.000000000000000
-6.594396591186523 -5.731208324432373 0.738262057304382 0.000000000000000
-6.591423034667969 -9.900630950927734 1.762730121612549 0.000000000000000
-6.587333679199219 -13.319095611572266 1.255584359169006 0.000000000000000
-6.586974620819092 -10.893972396850586 0.805399656295776 0.000000000000000
-6.586412906646729 -13.425555229187012 0.543116569519043 0.000000000000000
-6.586314678192139 -12.879657745361328 2.143892765045166 0.000000000000000
-6.585871696472168 -10.978519439697266 0.809945702552795 0.000000000000000
-6.585106849670410 -7.011446475982666 1.425548076629639 0.000000000000000
-6.584963798522949 -5.774450778961182 0.723132848739624 0.000000000000000
-6.581250190734863 -11.464584350585938 0.353085637092590 0.000000000000000
-6.579124450683594 -5.492424964904785 1.270150899887085 0.000000000000000
-6.578456401824951 -5.558044433593750 1.146037459373474 0.000000000000000
-6.577359199523926 -6.576444149017334 0.230563730001450 0.000000000000000
-6.574225425720215 -11.493658065795898 0.429995954036713 0.000000000000000
-6.573764801025391 -13.088685035705566 0.391213744878769 0.000000000000000
-6.571408748626709 5.875929832458496 1.833590507507324 1.000000000000000
-6.568599224090576 -12.010726928710938 0.971674203872681 0.000000000000000
-6.560228824615479 -5.313128471374512 0.713338971138000 0.000000000000000
-6.553732395172119 -12.265808105468750 0.960269570350647 0.000000000000000
-6.544050216674805 -5.406402587890625 0.684455633163452 0.000000000000000
-6.543174266815186 -11.850007057189941 0.309549093246460 0.000000000000000
-6.541326045989990 5.973471164703369 1.842550635337830 0.000000000000000
-6.533295154571533 -10.832080841064453 0.678447067737579 0.000000000000000
-6.529264926910400 -9.186891555786133 2.344323873519897 0.000000000000000
-6.528453826904297 -11.920513153076172 0.886046469211578 0.000000000000000
-6.528055667877197 -5.713673114776611 0.599031865596771 0.000000000000000
-6.526955604553223 -5.331607818603516 0.063250839710236 0.000000000000000
-6.522891998291016 -5.355676651000977 0.047137610614300 0.000000000000000
-6.521621704101562 -11.810974121093750 0.931613028049469 0.000000000000000
-6.520453929901123 -10.559159278869629 0.665593683719635 0.000000000000000
-6.503134727478027 -11.147531509399414 0.940944969654083 0.000000000000000
-6.494535923004150 -5.448403835296631 1.128097653388977 0.000000000000000
-6.486285209655762 -6.005103588104248 0.474077492952347 0.000000000000000
-6.485380172729492 -6.083368778228760 0.596840918064117 0.000000000000000
-6.482619762420654 -8.287234306335449 0.746809899806976 0.000000000000000
-6.480821609497070 -5.752729892730713 0.198166280984879 0.000000000000000
-6.478494167327881 -12.398014068603516 0.454274088144302 0.000000000000000
-6.478439807891846 -12.087809562683105 1.460807085037231 0.000000000000000
-6.469870090484619 -11.793994903564453 0.462703883647919 0.000000000000000
-6.468306064605713 -13.151705741882324 0.475955665111542 0.000000000000000
-6.468182563781738 -12.241061210632324 1.143122673034668 0.000000000000000
-6.461083412170410 -12.622802734375000 0.324272096157074 0.000000000000000
-6.459672927856445 -11.792970657348633 1.110208034515381 0.000000000000000
-6.457976341247559 -13.050666809082031 0.949279785156250 0.000000000000000
-6.457883358001709 -6.875986099243164 0.233834832906723 0.000000000000000
-6.453347206115723 -6.278675556182861 0.067573636770248 0.000000000000000
-6.451559543609619 -12.734339714050293 0.600810945034027 0.000000000000000
-6.450301647186279 -5.488472938537598 1.127042412757874 0.000000000000000
-6.449977397918701 -4.586131095886230 0.302650183439255 0.000000000000000
-6.448071956634521 -6.371106624603271 0.364075630903244 0.000000000000000
-6.447656631469727 -11.486775398254395 0.909569561481476 0.000000000000000
-6.447562217712402 -11.722743988037109 0.820629715919495 0.000000000000000
-6.446798324584961 -11.164384841918945 0.319577574729919 0.000000000000000
-6.438143253326416 -6.102954864501953 2.376994132995605 0.000000000000000
-6.434074878692627 -6.004493713378906 0.641645908355713 0.000000000000000
-6.425949096679688 -13.175733566284180 0.701568543910980 0.000000000000000
-6.423883914947510 -12.227396011352539 0.740786254405975 0.000000000000000
-6.417954444885254 -5.416301250457764 0.953862190246582 0.000000000000000
-6.414733886718750 -12.069954872131348 0.864750266075134 0.000000000000000
-6.413075923919678 -6.026916980743408 0.641645908355713 0.000000000000000
-6.411596775054932 -11.627057075500488 1.156977176666260 0.000000000000000
-6.410146236419678 -7.119689464569092 0.550712406635284 0.000000000000000
-6.409963130950928 -5.357471942901611 0.838262975215912 0.000000000000000
-6.409587383270264 -5.127337932586670 0.677710771560669 0.000000000000000
-6.409409046173096 -6.590021610260010 0.652502834796906 0.000000000000000
-6.408346176147461 -6.214892387390137 0.719819664955139 0.000000000000000
-6.400898456573486 -6.627400875091553 0.511904656887054 0.000000000000000
-6.398415088653564 7.036451339721680 0.748499870300293 0.000000000000000
-6.397141456604004 -10.523106575012207 0.470942020416260 0.000000000000000
-6.396622180938721 -12.684608459472656 1.090613365173340 0.000000000000000
-6.391524314880371 -5.799954414367676 1.475293159484863 0.000000000000000
-6.385049343109131 -5.958742141723633 0.502045869827271 0.000000000000000
-6.384381771087646 -6.600609779357910 1.222017884254456 0.000000000000000
-6.382115364074707 -13.202628135681152 0.476215332746506 0.000000000000000
-6.375334262847900 -10.588562011718750 1.513202905654907 0.000000000000000
-6.372718811035156 -11.072661399841309 0.463993728160858 0.000000000000000
-6.372706890106201 -6.272944927215576 0.324766576290131 0.000000000000000
-6.368726253509521 -5.744094848632812 1.783901810646057 0.000000000000000
-6.366794586181641 -6.361022949218750 0.760490775108337 0.000000000000000
-6.366399288177490 -11.999712944030762 0.467241555452347 0.000000000000000
-6.358430862426758 -13.321153640747070 1.019235968589783 0.000000000000000
-6.356712341308594 -5.275384426116943 2.213420391082764 0.000000000000000
-6.353277683258057 -5.073934555053711 0.530066609382629 0.000000000000000
-6.352332592010498 -9.189689636230469 0.105292066931725 0.000000000000000
-6.351505279541016 -3.999602556228638 0.460395097732544 0.000000000000000
-6.348355293273926 -5.065649986267090 0.545139670372009 0.000000000000000
-6.343468666076660 -6.801586151123047 0.660149335861206 1.000000000000000
-6.343176841735840 -6.061884880065918 0.419908583164215 0.000000000000000
-6.340695381164551 -11.204400062561035 1.087858796119690 0.000000000000000
-6.339447975158691 -5.601968288421631 0.737173616886139 0.000000000000000
-6.337803363800049 -12.598035812377930 0.973771214485168 0.000000000000000
-6.337646007537842 -5.436243057250977 0.756949007511139 0.000000000000000
-6.334171295166016 -12.361027717590332 0.718192040920258 0.000000000000000
-6.333683967590332 -5.098239898681641 0.737086296081543 0.000000000000000
-6.332612514495850 -11.737374305725098 1.075389385223389 0.000000000000000
-6.328128337860107 -9.376894950866699 1.676528930664062 0.000000000000000
-6.327399253845215 -6.185007095336914 0.457519501447678 0.000000000000000
-6.322977066040039 -5.859652996063232 0.781506478786469 0.000000000000000
-6.320709705352783 -6.648080825805664 0.799328088760376 0.000000000000000
-6.318773746490479 -11.876886367797852 0.540334463119507 0.000000000000000
-6.310789108276367 -11.335454940795898 1.096278786659241 0.000000000000000
-6.309532165527344 -5.578080177307129 0.845052123069763 0.000000000000000
-6.302624702453613 -13.535758018493652 0.513580679893494 0.000000000000000
-6.300126075744629 -10.879663467407227 0.311647593975067 0.000000000000000
-6.295532703399658 -5.207008838653564 0.186826810240746 0.000000000000000
-6.295291900634766 -6.294416427612305 0.775716364383698 0.000000000000000
-6.292301654815674 -12.940084457397461 0.301403343677521 0.000000000000000
-6.290213108062744 -5.683841705322266 0.667216241359711 0.000000000000000
-6.287274360656738 -11.293217658996582 0.693228542804718 0.000000000000000
-6.284976005554199 -12.357348442077637 0.476866871118546 0.000000000000000
-6.284865856170654 -8.390767097473145 0.098807908594608 0.000000000000000
-6.283146858215332 -6.415240764617920 0.084633253514767 0.000000000000000
-6.282149314880371 -10.625921249389648 0.543270111083984 0.000000000000000
-6.279263973236084 -11.466459274291992 0.701154828071594 0.000000000000000
-6.278727054595947 -12.948926925659180 0.384378463029861 0.000000000000000
-6.262304782867432 -13.474969863891602 1.255584359169006 0.000000000000000
-6.261442184448242 -9.089372634887695 0.485759794712067 0.000000000000000
-6.257370948791504 -11.283489227294922 0.592664122581482 0.000000000000000
-6.252115726470947 -12.343875885009766 1.142464399337769 0.000000000000000
-6.250081062316895 -11.801364898681641 0.510683953762054 0.000000000000000
-6.249217987060547 -9.431523323059082 0.563243687152863 0.000000000000000
-6.241437435150146 -11.472371101379395 0.449228405952454 0.000000000000000
-6.238675594329834 -10.182190895080566 1.009047985076904 0.000000000000000
-6.237620830535889 -11.482535362243652 0.474591821432114 0.000000000000000
-6.233637809753418 -12.494008064270020 0.964127182960510 0.000000000000000
