# This PCD file was generated using the MATLAB® pcwrite function
# from Computer Vision Toolbox®.
# .PCD v.7 - Point Cloud Data file format
VERSION .7
FIELDS x y z intensity
SIZE 8 8 8 8
TYPE F F F F
COUNT 1 1 1 1
WIDTH 633
HEIGHT 1
VIEWPOINT 0 0 0 1 0 0 0
POINTS 633
DATA ascii
10.250937461853027 -19.715391159057617 2.523920059204102 1.000000000000000
10.252578735351562 -16.542808532714844 1.952885150909424 1.000000000000000
10.253746032714844 -20.519176483154297 0.260240495204926 1.000000000000000
10.254199028015137 -19.686382293701172 1.875630259513855 1.000000000000000
10.260296821594238 -9.068289756774902 -0.633785784244537 1.000000000000000
10.271209716796875 -18.378919601440430 2.112630367279053 1.000000000000000
10.278878211975098 -16.046709060668945 0.362577289342880 0.000000000000000
10.283258438110352 -18.729953765869141 -1.030077457427979 1.000000000000000
10.284736633300781 -11.633778572082520 1.901103973388672 0.000000000000000
10.285917282104492 -15.051486968994141 0.241831317543983 0.000000000000000
10.288253784179688 -17.420070648193359 1.762897014617920 1.000000000000000
10.308160781860352 -20.022253036499023 0.039304792881012 1.000000000000000
10.309864044189453 -18.705598831176758 2.425960779190063 0.000000000000000
10.310235977172852 -17.614200592041016 1.488060116767883 0.000000000000000
10.315346717834473 -21.194643020629883 -0.456712901592255 1.000000000000000
10.322824478149414 -19.685449600219727 1.792315602302551 0.000000000000000
10.325060844421387 -20.661888122558594 -0.802565872669220 1.000000000000000
10.326659202575684 -9.252901077270508 -0.855346441268921 0.000000000000000
10.346607208251953 -7.588945388793945 -0.569205641746521 0.000000000000000
10.362535476684570 -11.206596374511719 1.531557202339172 0.000000000000000
10.369697570800781 -21.118646621704102 0.990194201469421 1.000000000000000
10.371682167053223 -19.233341217041016 -0.129671618342400 1.000000000000000
10.373414039611816 -17.228822708129883 2.284213304519653 1.000000000000000
10.381288528442383 -20.311283111572266 0.784602761268616 1.000000000000000
10.383006095886230 -16.773515701293945 1.875179886817932 1.000000000000000
10.385100364685059 -15.166485786437988 0.314428776502609 1.000000000000000
10.387110710144043 -16.649997711181641 -1.248413443565369 0.000000000000000
10.387500762939453 -19.904977798461914 2.748847484588623 1.000000000000000
10.390405654907227 -11.145854949951172 1.623071789741516 0.000000000000000
10.391876220703125 -4.081321716308594 -1.228638648986816 0.000000000000000
10.396487236022949 -1.142089605331421 -0.142393529415131 0.000000000000000
10.397346496582031 -6.635581016540527 -0.856010913848877 1.000000000000000
10.398668289184570 -10.775284767150879 -0.203870505094528 1.000000000000000
10.401925086975098 -20.611970901489258 -0.048355355858803 1.000000000000000
10.403809547424316 -11.263450622558594 1.147520780563354 0.000000000000000
10.413141250610352 -6.556997299194336 -0.806551516056061 0.000000000000000
10.414686203002930 -20.855802536010742 -0.138335376977921 1.000000000000000
10.414706230163574 -18.863092422485352 1.820731997489929 1.000000000000000
10.415278434753418 -20.602655410766602 1.016015410423279 1.000000000000000
10.418794631958008 -17.412675857543945 1.714640498161316 1.000000000000000
10.430606842041016 -10.762798309326172 -0.982355117797852 0.000000000000000
10.432780265808105 -18.895828247070312 1.490415573120117 1.000000000000000
10.435137748718262 -19.090217590332031 2.471103429794312 1.000000000000000
10.435580253601074 -16.846620559692383 1.726784825325012 1.000000000000000
10.437685966491699 -9.365857124328613 -0.676060616970062 0.000000000000000
10.438966751098633 -20.530130386352539 -0.446252077817917 1.000000000000000
10.446889877319336 -16.095409393310547 0.770690977573395 1.000000000000000
10.449935913085938 -20.779193878173828 -0.227335989475250 1.000000000000000
10.468923568725586 -19.282960891723633 0.796890377998352 1.000000000000000
10.469142913818359 -10.752881050109863 0.112632721662521 0.000000000000000
10.469861030578613 -19.893192291259766 2.752250194549561 1.000000000000000
10.473541259765625 -14.433597564697266 2.642922639846802 0.000000000000000
10.474931716918945 -20.031583786010742 0.560351133346558 1.000000000000000
10.479542732238770 -14.611793518066406 -0.728488385677338 0.000000000000000
10.481966972351074 -32.124668121337891 2.659449577331543 0.000000000000000
10.482285499572754 -10.996717453002930 1.254373788833618 0.000000000000000
10.485251426696777 -19.026165008544922 1.667762637138367 1.000000000000000
10.486102104187012 -20.445861816406250 1.320883274078369 1.000000000000000
10.494033813476562 -17.050470352172852 0.342478334903717 0.000000000000000
10.496600151062012 -11.537230491638184 2.311604261398315 0.000000000000000
10.496738433837891 -15.950619697570801 1.429027557373047 0.000000000000000
10.504824638366699 -14.598570823669434 -0.313933879137039 0.000000000000000
10.510365486145020 -17.499794006347656 2.048332691192627 1.000000000000000
10.511610984802246 -16.056692123413086 2.044197797775269 1.000000000000000
10.519027709960938 -20.524169921875000 -0.491150200366974 1.000000000000000
10.519520759582520 -4.856468200683594 -1.072802066802979 1.000000000000000
10.522537231445312 -14.608122825622559 2.668137788772583 0.000000000000000
10.527525901794434 -19.968072891235352 -0.350668609142303 1.000000000000000
10.528696060180664 -14.671674728393555 -0.696896314620972 1.000000000000000
10.532612800598145 -20.085512161254883 -0.962452530860901 1.000000000000000
10.536209106445312 -19.095756530761719 0.792099475860596 1.000000000000000
10.538306236267090 -4.829708099365234 -1.095797300338745 1.000000000000000
10.539159774780273 -11.506310462951660 1.910339713096619 0.000000000000000
10.540775299072266 -16.224550247192383 0.033768612891436 0.000000000000000
10.541782379150391 -14.908546447753906 -0.423921972513199 0.000000000000000
10.542892456054688 -19.935611724853516 -0.610232353210449 1.000000000000000
10.547432899475098 -19.863586425781250 0.989810347557068 1.000000000000000
10.552211761474609 -17.124233245849609 -1.163310766220093 0.000000000000000
10.559311866760254 -21.011297225952148 -0.636307835578918 1.000000000000000
10.560510635375977 -20.778142929077148 0.085428088903427 1.000000000000000
10.560988426208496 -18.088905334472656 0.760740697383881 1.000000000000000
10.561184883117676 -8.644845962524414 -0.657955288887024 0.000000000000000
10.562018394470215 -19.055171966552734 2.186113119125366 1.000000000000000
10.563198089599609 -19.290884017944336 1.858453392982483 1.000000000000000
10.565223693847656 -9.162861824035645 -0.728031098842621 0.000000000000000
10.566635131835938 -17.383159637451172 1.091042399406433 1.000000000000000
10.567757606506348 -20.659208297729492 -1.029391765594482 1.000000000000000
10.568943023681641 -19.917528152465820 0.602253437042236 1.000000000000000
10.571434974670410 -0.966168642044067 -0.103757478296757 0.000000000000000
10.574440002441406 -9.168270111083984 -0.109923198819160 1.000000000000000
10.574485778808594 -7.807014465332031 -0.557798504829407 1.000000000000000
10.576336860656738 -20.692899703979492 -0.986195802688599 1.000000000000000
10.578866958618164 -17.016834259033203 -1.429246544837952 0.000000000000000
10.586955070495605 -17.180616378784180 -0.546071410179138 0.000000000000000
10.589240074157715 -19.749679565429688 0.340298891067505 0.000000000000000
10.591154098510742 -16.139448165893555 1.035344123840332 1.000000000000000
10.593700408935547 -9.238870620727539 -0.461387872695923 1.000000000000000
10.593864440917969 -10.714359283447266 2.233026027679443 0.000000000000000
10.596750259399414 -15.494141578674316 0.573513329029083 1.000000000000000
10.599763870239258 -16.883066177368164 0.226161912083626 1.000000000000000
10.600152969360352 -17.560983657836914 -1.067820549011230 1.000000000000000
10.602177619934082 -21.192378997802734 -1.142369031906128 1.000000000000000
10.606923103332520 -16.099077224731445 1.934514403343201 1.000000000000000
10.608402252197266 -15.511177062988281 -0.869767904281616 0.000000000000000
10.610213279724121 -14.983122825622559 0.137788966298103 1.000000000000000
10.612623214721680 -17.469806671142578 1.056942343711853 0.000000000000000
10.615203857421875 -1.429383873939514 -0.145824044942856 0.000000000000000
10.619398117065430 -17.134679794311523 0.615900814533234 0.000000000000000
10.619481086730957 -15.743437767028809 -0.258540898561478 0.000000000000000
10.624855041503906 -15.329370498657227 -0.683918178081512 1.000000000000000
10.626730918884277 -17.455928802490234 -0.395962506532669 0.000000000000000
10.632764816284180 -18.211845397949219 1.415488123893738 0.000000000000000
10.633567810058594 -16.858400344848633 2.263899087905884 1.000000000000000
10.636504173278809 -16.336299896240234 -0.490036875009537 0.000000000000000
10.642104148864746 -21.111713409423828 -1.185257196426392 1.000000000000000
10.645914077758789 -19.390493392944336 1.826428890228271 0.000000000000000
10.646021842956543 -20.897600173950195 0.941973507404327 1.000000000000000
10.648702621459961 -15.471965789794922 0.249153107404709 1.000000000000000
10.649104118347168 -3.884799003601074 -1.247453331947327 0.000000000000000
10.649906158447266 -15.873854637145996 -1.363504648208618 0.000000000000000
10.652372360229492 -16.416383743286133 -0.304008066654205 0.000000000000000
10.654596328735352 -11.883917808532715 1.954087853431702 0.000000000000000
10.657538414001465 -17.369737625122070 0.231198832392693 0.000000000000000
10.670149803161621 -3.934733629226685 -0.899031281471252 1.000000000000000
10.672442436218262 -17.557222366333008 -0.477028280496597 0.000000000000000
10.677731513977051 -18.017717361450195 1.688795328140259 1.000000000000000
10.681300163269043 -3.854351520538330 -1.249641060829163 0.000000000000000
10.689110755920410 -17.367427825927734 0.662261307239532 1.000000000000000
10.694617271423340 -16.174974441528320 1.264145016670227 1.000000000000000
10.704319953918457 -15.663740158081055 -0.039734832942486 0.000000000000000
10.714227676391602 -10.937570571899414 1.175425171852112 0.000000000000000
10.716958999633789 -17.599994659423828 2.522814989089966 1.000000000000000
10.718217849731445 -15.055271148681641 -0.748728692531586 1.000000000000000
10.719365119934082 -15.730509757995605 1.240985512733459 0.000000000000000
10.727374076843262 -3.991819381713867 -0.882732212543488 1.000000000000000
10.735005378723145 -21.296010971069336 1.738784790039062 1.000000000000000
10.735157966613770 -16.543966293334961 0.299484908580780 0.000000000000000
10.739766120910645 -16.086563110351562 1.597014427185059 1.000000000000000
10.742094993591309 -17.397005081176758 -1.103749275207520 0.000000000000000
10.750186920166016 -19.935245513916016 1.258349180221558 1.000000000000000
10.752846717834473 -17.200805664062500 2.160706520080566 1.000000000000000
10.754886627197266 -15.275438308715820 -1.476844906806946 0.000000000000000
10.760129928588867 -9.512394905090332 -0.720006763935089 1.000000000000000
10.763230323791504 -20.455799102783203 1.685265779495239 1.000000000000000
10.780325889587402 -16.313262939453125 1.614459156990051 1.000000000000000
10.780631065368652 -17.477155685424805 2.514065504074097 1.000000000000000
10.782019615173340 -16.509330749511719 0.261568337678909 0.000000000000000
10.788711547851562 -19.954137802124023 -0.003959104884416 1.000000000000000
10.789202690124512 -18.731210708618164 1.242603659629822 0.000000000000000
10.789829254150391 -15.723981857299805 -0.479381740093231 0.000000000000000
10.791714668273926 -21.076154708862305 -0.913770198822021 1.000000000000000
10.794697761535645 -18.161561965942383 1.173808336257935 1.000000000000000
10.810326576232910 -16.358661651611328 1.316103816032410 1.000000000000000
10.810341835021973 -14.010179519653320 2.354864358901978 0.000000000000000
10.815782546997070 -17.227136611938477 3.476947069168091 0.000000000000000
10.819591522216797 -16.910972595214844 0.035039212554693 0.000000000000000
10.822855949401855 -20.922286987304688 -0.094559602439404 1.000000000000000
10.839682579040527 -8.817969322204590 -0.270742267370224 1.000000000000000
10.841670036315918 -12.864866256713867 2.875777006149292 0.000000000000000
10.842069625854492 -16.331607818603516 0.598921358585358 0.000000000000000
10.843762397766113 -16.747800827026367 -0.080092258751392 0.000000000000000
10.844923973083496 -14.822594642639160 0.596437633037567 0.000000000000000
10.845142364501953 -16.077981948852539 0.629803836345673 0.000000000000000
10.849889755249023 -16.252742767333984 -1.017288804054260 0.000000000000000
10.851119995117188 -17.551637649536133 0.194486841559410 0.000000000000000
10.856836318969727 -15.389975547790527 0.611627697944641 1.000000000000000
10.859795570373535 -19.757158279418945 0.558864295482635 0.000000000000000
10.865988731384277 -15.732341766357422 -1.105803370475769 0.000000000000000
10.869915962219238 -15.044927597045898 -1.323945641517639 0.000000000000000
10.870145797729492 -20.883129119873047 0.493152111768723 1.000000000000000
10.874318122863770 -17.699472427368164 3.078620672225952 0.000000000000000
10.875441551208496 -16.291017532348633 -0.417141258716583 0.000000000000000
10.879161834716797 -16.578330993652344 2.638735532760620 0.000000000000000
10.880237579345703 -21.009847640991211 -0.049553349614143 1.000000000000000
10.896360397338867 -19.868021011352539 1.652107357978821 1.000000000000000
10.896429061889648 -17.093429565429688 0.191056266427040 1.000000000000000
10.901072502136230 -15.368817329406738 0.249948963522911 0.000000000000000
10.906143188476562 -8.639763832092285 -0.536940276622772 1.000000000000000
10.910282135009766 -16.414457321166992 0.640060424804688 0.000000000000000
10.911057472229004 -17.568965911865234 -0.877654969692230 0.000000000000000
10.911529541015625 -17.416067123413086 -1.149029970169067 1.000000000000000
10.916452407836914 -16.598501205444336 1.801004171371460 1.000000000000000
10.919619560241699 -16.357192993164062 0.185363784432411 0.000000000000000
10.922090530395508 -16.090085983276367 0.594157397747040 0.000000000000000
10.923724174499512 -16.150054931640625 -0.752425909042358 1.000000000000000
10.923943519592285 -3.647046089172363 -1.088645100593567 1.000000000000000
10.932208061218262 -8.821809768676758 -0.677216291427612 0.000000000000000
10.934716224670410 -17.223051071166992 0.348977655172348 0.000000000000000
10.942108154296875 -21.369873046875000 3.194869756698608 0.000000000000000
10.944957733154297 -17.725543975830078 2.772228717803955 0.000000000000000
10.948440551757812 -17.629159927368164 0.394840180873871 0.000000000000000
10.949797630310059 -17.769439697265625 1.683008432388306 1.000000000000000
10.956973075866699 -15.783230781555176 -0.298478424549103 1.000000000000000
10.960669517517090 -17.569381713867188 -0.043370697647333 0.000000000000000
10.965022087097168 -3.567194938659668 -1.067638993263245 1.000000000000000
10.967368125915527 -19.846059799194336 -0.482889115810394 0.000000000000000
10.970246315002441 -14.553779602050781 -0.318122476339340 0.000000000000000
10.971451759338379 -17.804580688476562 2.375401020050049 1.000000000000000
10.973482131958008 -16.111877441406250 -0.490036875009537 0.000000000000000
10.983169555664062 -16.620214462280273 -1.420993208885193 1.000000000000000
10.984939575195312 -16.298725128173828 -0.909714758396149 0.000000000000000
10.985183715820312 -17.792083740234375 1.040966629981995 1.000000000000000
10.988213539123535 -17.006011962890625 1.671730518341064 0.000000000000000
10.988628387451172 -19.077436447143555 -0.426570177078247 0.000000000000000
10.995290756225586 -14.442790985107422 0.066530406475067 0.000000000000000
10.996009826660156 -15.269362449645996 1.444557547569275 1.000000000000000
11.004146575927734 -17.979665756225586 1.089991211891174 0.000000000000000
11.004543304443359 -16.071125030517578 0.932174026966095 1.000000000000000
11.004912376403809 -17.503948211669922 0.909964203834534 1.000000000000000
11.008232116699219 -18.428430557250977 2.438149213790894 1.000000000000000
11.017720222473145 -18.177379608154297 2.264081478118896 1.000000000000000
11.024350166320801 -10.363059043884277 1.611632823944092 0.000000000000000
11.030619621276855 -17.542114257812500 -1.038852572441101 0.000000000000000
11.034613609313965 -36.065574645996094 2.749828100204468 0.000000000000000
11.039576530456543 -17.181394577026367 -1.023831605911255 1.000000000000000
11.046589851379395 -17.361059188842773 -0.517277956008911 0.000000000000000
11.048138618469238 -17.323417663574219 2.515523672103882 1.000000000000000
11.048844337463379 -14.467502593994141 -0.003177197417244 0.000000000000000
11.050112724304199 -14.901254653930664 0.566794872283936 1.000000000000000
11.050898551940918 -11.593235969543457 1.960893273353577 0.000000000000000
11.054286956787109 -8.205448150634766 -1.381396651268005 1.000000000000000
11.062923431396484 -15.566470146179199 0.326674818992615 0.000000000000000
11.064949035644531 -17.624004364013672 0.875818133354187 0.000000000000000
11.067340850830078 -11.739450454711914 1.462616205215454 0.000000000000000
11.071150779724121 -15.987578392028809 -0.227414026856422 1.000000000000000
11.076339721679688 -18.333953857421875 2.622463941574097 1.000000000000000
11.092421531677246 -8.233754158020020 -1.172165393829346 0.000000000000000
11.093072891235352 -9.158090591430664 -1.471317052841187 1.000000000000000
11.096349716186523 -9.117239952087402 -1.052123546600342 1.000000000000000
11.101911544799805 -16.816486358642578 1.624818563461304 1.000000000000000
11.103404045104980 -17.418115615844727 1.147625088691711 1.000000000000000
11.104723930358887 -20.173553466796875 0.040191423147917 1.000000000000000
11.115389823913574 -15.670970916748047 3.996265888214111 0.000000000000000
11.118736267089844 -17.684991836547852 1.985707163810730 1.000000000000000
11.120256423950195 -16.770332336425781 0.266927033662796 0.000000000000000
11.120613098144531 -20.344240188598633 -1.340913653373718 1.000000000000000
11.134766578674316 -6.853904247283936 -1.084161758422852 1.000000000000000
11.139515876770020 -20.210868835449219 -1.334677934646606 1.000000000000000
11.150147438049316 -3.678493261337280 -0.588623046875000 0.000000000000000
11.153927803039551 -17.740966796875000 -0.043890111148357 0.000000000000000
11.154026031494141 -17.395542144775391 1.068509459495544 1.000000000000000
11.154780387878418 -17.456333160400391 -0.003615624271333 0.000000000000000
11.164631843566895 -15.405213356018066 1.387130260467529 0.000000000000000
11.171125411987305 -17.194795608520508 0.350756406784058 0.000000000000000
11.180428504943848 -18.061733245849609 0.281782835721970 1.000000000000000
11.194404602050781 -16.147495269775391 -0.380697399377823 1.000000000000000
11.194770812988281 -19.065010070800781 0.378190249204636 0.000000000000000
11.195251464843750 -17.635448455810547 -0.364615678787231 1.000000000000000
11.195437431335449 -20.376213073730469 0.933786630630493 1.000000000000000
11.201311111450195 -18.901212692260742 0.755726754665375 1.000000000000000
11.203543663024902 -15.021948814392090 -0.399086147546768 0.000000000000000
11.209119796752930 -16.978878021240234 2.310847520828247 1.000000000000000
11.214671134948730 -17.779678344726562 -0.892070531845093 0.000000000000000
11.218064308166504 -18.678113937377930 -0.003802723251283 0.000000000000000
11.218373298645020 -19.122785568237305 0.975740551948547 1.000000000000000
11.224205970764160 -15.527302742004395 1.249052286148071 0.000000000000000
11.226760864257812 -17.568977355957031 -0.965011537075043 0.000000000000000
11.233802795410156 -20.515565872192383 0.534875214099884 1.000000000000000
11.240601539611816 -20.704334259033203 -0.230268105864525 1.000000000000000
11.240661621093750 -33.427959442138672 2.503243446350098 0.000000000000000
11.241559028625488 -13.075055122375488 2.111095666885376 0.000000000000000
11.245843887329102 -20.542654037475586 -1.309349298477173 1.000000000000000
11.251795768737793 -20.632106781005859 0.582554996013641 1.000000000000000
11.251962661743164 -16.821313858032227 0.307319730520248 0.000000000000000
11.259005546569824 -17.463191986083984 -0.282881230115891 1.000000000000000
11.262202262878418 -14.935679435729980 -0.614002823829651 0.000000000000000
11.262912750244141 -14.652678489685059 -0.322590291500092 0.000000000000000
11.265348434448242 -16.665151596069336 1.660868644714355 0.000000000000000
11.266744613647461 -16.532539367675781 -0.464494466781616 0.000000000000000
11.289510726928711 -14.590070724487305 -0.074054822325706 0.000000000000000
11.289985656738281 -8.910216331481934 -1.331690549850464 0.000000000000000
11.290840148925781 -18.991769790649414 0.250665813684464 1.000000000000000
11.298112869262695 -8.852803230285645 -1.106952309608459 1.000000000000000
11.304178237915039 -8.867431640625000 -1.135767817497253 1.000000000000000
11.312962532043457 -16.951532363891602 2.495107889175415 0.000000000000000
11.312966346740723 -17.201402664184570 -0.398907035589218 0.000000000000000
11.313941001892090 -16.259241104125977 0.681336641311646 0.000000000000000
11.314517021179199 -10.710460662841797 1.659507274627686 0.000000000000000
11.322721481323242 -16.957180023193359 0.858157157897949 1.000000000000000
11.324509620666504 -10.520437240600586 3.215096235275269 0.000000000000000
11.325151443481445 -14.363822937011719 0.137278646230698 0.000000000000000
11.334163665771484 -18.871421813964844 -0.680264413356781 0.000000000000000
11.336158752441406 -3.500022888183594 -0.686161637306213 1.000000000000000
11.338212966918945 -19.716159820556641 1.132255077362061 1.000000000000000
11.349180221557617 -17.854503631591797 -0.572471499443054 0.000000000000000
11.350641250610352 -16.701332092285156 0.655769765377045 1.000000000000000
11.350821495056152 -17.132324218750000 -0.437666207551956 1.000000000000000
11.359508514404297 -15.213335037231445 1.804775357246399 0.000000000000000
11.376330375671387 -16.905534744262695 -0.355680048465729 1.000000000000000
11.385256767272949 -14.811844825744629 -0.613215446472168 0.000000000000000
11.389407157897949 -15.711899757385254 1.452312350273132 0.000000000000000
11.391219139099121 -15.121598243713379 -0.548661768436432 0.000000000000000
11.401111602783203 -16.950021743774414 -0.121221482753754 0.000000000000000
11.401899337768555 -18.397266387939453 -0.003777590813115 0.000000000000000
11.402847290039062 -17.647724151611328 2.572396278381348 0.000000000000000
11.407236099243164 -15.125823020935059 -0.512638449668884 1.000000000000000
11.414762496948242 -18.185407638549805 0.202365830540657 0.000000000000000
11.424539566040039 -18.298004150390625 2.164547443389893 1.000000000000000
11.427441596984863 -17.541700363159180 1.364849925041199 0.000000000000000
11.428008079528809 -17.861923217773438 0.362728744745255 0.000000000000000
11.429108619689941 -11.529686927795410 1.629001617431641 0.000000000000000
11.431973457336426 -18.208591461181641 1.949071526527405 1.000000000000000
11.434166908264160 -12.015033721923828 1.766695261001587 0.000000000000000
11.434305191040039 -13.182445526123047 3.629710912704468 0.000000000000000
11.438330650329590 -14.889497756958008 -0.075371496379375 1.000000000000000
11.442247390747070 -18.714548110961914 -1.268625259399414 1.000000000000000
11.442471504211426 -10.532585144042969 1.656541585922241 0.000000000000000
11.445198059082031 -15.400299072265625 1.473032236099243 1.000000000000000
11.448031425476074 -17.022346496582031 0.863371372222900 1.000000000000000
11.449498176574707 -18.660480499267578 -1.434944748878479 1.000000000000000
11.449592590332031 -17.538202285766602 1.729330897331238 1.000000000000000
11.450604438781738 -17.325584411621094 -0.921258628368378 0.000000000000000
11.462198257446289 -17.980962753295898 -0.126538425683975 0.000000000000000
11.465046882629395 -17.299484252929688 -1.120351791381836 1.000000000000000
11.469076156616211 -15.874218940734863 1.314496517181396 0.000000000000000
11.473097801208496 -15.063863754272461 0.142111763358116 0.000000000000000
11.474614143371582 -20.994464874267578 1.836773991584778 1.000000000000000
11.476499557495117 -17.516569137573242 2.378561019897461 0.000000000000000
11.482517242431641 -15.396002769470215 1.067078232765198 1.000000000000000
11.483977317810059 -14.794919013977051 1.437821507453918 1.000000000000000
11.485965728759766 -19.871839523315430 -0.400637447834015 1.000000000000000
11.491270065307617 -21.079982757568359 0.964286804199219 1.000000000000000
11.492272377014160 -19.596721649169922 2.279563903808594 1.000000000000000
11.492884635925293 -19.730117797851562 1.797027349472046 1.000000000000000
11.493958473205566 -17.313560485839844 -0.322833836078644 1.000000000000000
11.495367050170898 -17.447547912597656 -0.645670533180237 1.000000000000000
11.495713233947754 -17.297201156616211 -0.362521380186081 1.000000000000000
11.497247695922852 -17.283800125122070 2.357795476913452 1.000000000000000
11.501045227050781 -17.881750106811523 -1.352532505989075 0.000000000000000
11.501434326171875 -16.095874786376953 1.880479097366333 0.000000000000000
11.504079818725586 -17.793491363525391 1.790420293807983 1.000000000000000
11.506683349609375 -17.632371902465820 2.577743530273438 1.000000000000000
11.507145881652832 -18.758842468261719 -0.468666464090347 1.000000000000000
11.508429527282715 -12.293014526367188 1.227736830711365 0.000000000000000
11.509078979492188 -17.274112701416016 2.762203454971313 0.000000000000000
11.522997856140137 -10.657717704772949 1.326312065124512 0.000000000000000
11.526551246643066 -19.742725372314453 -0.926195561885834 0.000000000000000
11.528408050537109 -16.675239562988281 -1.133399844169617 1.000000000000000
11.534509658813477 -16.382755279541016 -0.041963268071413 0.000000000000000
11.535832405090332 -16.352478027343750 0.034927513450384 1.000000000000000
11.536329269409180 -17.266639709472656 1.554108500480652 1.000000000000000
11.542181968688965 -12.286016464233398 1.359266400337219 0.000000000000000
11.545870780944824 -14.602832794189453 -0.074729219079018 0.000000000000000
11.546604156494141 -16.953367233276367 -1.146797060966492 0.000000000000000
11.549526214599609 -16.353099822998047 0.380915373563766 1.000000000000000
11.549755096435547 -18.423313140869141 2.893586397171021 0.000000000000000
11.552944183349609 -19.757823944091797 -0.135819330811501 1.000000000000000
11.553813934326172 -18.788539886474609 1.013163805007935 1.000000000000000
11.556133270263672 -18.084419250488281 0.985815703868866 1.000000000000000
11.556608200073242 -18.321783065795898 1.412209749221802 1.000000000000000
11.557499885559082 -17.537189483642578 0.843570291996002 1.000000000000000
11.561066627502441 -10.060158729553223 1.632392525672913 0.000000000000000
11.561223983764648 -16.760200500488281 -0.355400800704956 1.000000000000000
11.561443328857422 -20.084867477416992 -0.493534803390503 1.000000000000000
11.569895744323730 -17.596075057983398 0.198482885956764 0.000000000000000
11.569952011108398 -9.700086593627930 1.275792241096497 0.000000000000000
11.570129394531250 -19.938659667968750 -0.845297038555145 1.000000000000000
11.571166038513184 -17.333187103271484 -1.406154274940491 1.000000000000000
11.574546813964844 -17.701917648315430 0.646194994449615 1.000000000000000
11.580835342407227 -15.044537544250488 0.835570216178894 1.000000000000000
11.584264755249023 -17.663558959960938 0.442471444606781 1.000000000000000
11.585903167724609 -17.227350234985352 1.513656139373779 1.000000000000000
11.596037864685059 -18.818164825439453 -0.938030838966370 0.000000000000000
11.598887443542480 -18.049102783203125 0.861709833145142 1.000000000000000
11.599097251892090 -17.717849731445312 0.362249851226807 1.000000000000000
11.600831031799316 -19.692728042602539 1.137823939323425 1.000000000000000
11.607717514038086 -19.977727890014648 -1.113862872123718 1.000000000000000
11.616476058959961 -18.296876907348633 1.705700993537903 1.000000000000000
11.618631362915039 -15.917942047119141 -1.329680204391479 1.000000000000000
11.618966102600098 -17.449602127075195 1.084001064300537 0.000000000000000
11.620049476623535 -16.452955245971680 -0.235552653670311 1.000000000000000
11.621461868286133 -18.859422683715820 1.102820038795471 1.000000000000000
11.623337745666504 -19.707334518432617 -0.443307518959045 0.000000000000000
11.626786231994629 -18.414520263671875 1.798122406005859 1.000000000000000
11.628368377685547 -10.182735443115234 1.755593895912170 0.000000000000000
11.638266563415527 -16.517259597778320 0.306833833456039 0.000000000000000
11.655839920043945 -14.751439094543457 -1.014914631843567 1.000000000000000
11.661001205444336 -9.502349853515625 1.271077156066895 0.000000000000000
11.661464691162109 -19.704330444335938 -0.399660110473633 1.000000000000000
11.667819023132324 -15.865231513977051 -1.290796279907227 0.000000000000000
11.670092582702637 -18.340970993041992 1.124072790145874 1.000000000000000
11.675293922424316 -10.091718673706055 1.214546918869019 0.000000000000000
11.679897308349609 -10.357508659362793 1.077926754951477 0.000000000000000
11.680020332336426 -17.625188827514648 -0.409677833318710 1.000000000000000
11.681761741638184 -18.490152359008789 2.910470962524414 0.000000000000000
11.682682037353516 -14.890910148620605 1.051545858383179 1.000000000000000
11.684809684753418 -17.681968688964844 0.769741773605347 1.000000000000000
11.691989898681641 -15.297466278076172 0.921466052532196 1.000000000000000
11.693679809570312 -18.196609497070312 1.884775519371033 1.000000000000000
11.695994377136230 -17.716365814208984 -0.900889515876770 1.000000000000000
11.701279640197754 -19.347011566162109 1.970194578170776 1.000000000000000
11.711761474609375 -17.875648498535156 1.723194837570190 1.000000000000000
11.715888023376465 -18.887695312500000 2.367456436157227 1.000000000000000
11.716528892517090 -16.628332138061523 -0.315999418497086 0.000000000000000
11.717005729675293 -16.543622970581055 2.481983423233032 0.000000000000000
11.717141151428223 -13.891899108886719 2.693353414535522 0.000000000000000
11.728982925415039 -18.280994415283203 0.830606639385223 1.000000000000000
11.729550361633301 -17.273773193359375 0.918933749198914 1.000000000000000
11.737516403198242 -18.880601882934570 0.124166265130043 1.000000000000000
11.739031791687012 -9.639804840087891 1.019558548927307 0.000000000000000
11.742007255554199 -20.047424316406250 -1.477983355522156 0.000000000000000
11.747657775878906 -19.666273117065430 0.435853660106659 1.000000000000000
11.752208709716797 -12.431524276733398 1.822195768356323 0.000000000000000
11.753987312316895 -18.153608322143555 1.576773643493652 0.000000000000000
11.756365776062012 -23.097078323364258 3.840945720672607 0.000000000000000
11.761458396911621 -17.614244461059570 -0.410375237464905 0.000000000000000
11.762104034423828 -19.789176940917969 -1.198412895202637 1.000000000000000
11.765769958496094 -9.519574165344238 2.014007806777954 0.000000000000000
11.766605377197266 -19.205871582031250 1.903247714042664 1.000000000000000
11.767316818237305 -21.269054412841797 -0.190912634134293 1.000000000000000
11.770736694335938 -15.989380836486816 0.606617033481598 0.000000000000000
11.772665977478027 -19.066032409667969 1.201796054840088 1.000000000000000
11.774720191955566 -17.567634582519531 -1.223127603530884 0.000000000000000
11.774883270263672 -17.068027496337891 -0.919840514659882 1.000000000000000
11.782038688659668 -17.721313476562500 -0.698511838912964 0.000000000000000
11.783609390258789 -14.556218147277832 0.032686509191990 1.000000000000000
11.786502838134766 -18.854293823242188 1.749951839447021 1.000000000000000
11.786622047424316 -12.371981620788574 1.113998532295227 0.000000000000000
11.792063713073730 -19.399110794067383 1.567567706108093 1.000000000000000
11.797778129577637 -19.618511199951172 0.391599297523499 1.000000000000000
11.804149627685547 -10.592000961303711 1.186925768852234 0.000000000000000
11.807783126831055 -15.245016098022461 0.589149057865143 0.000000000000000
11.819389343261719 -14.568675041198730 1.223030447959900 0.000000000000000
11.820033073425293 -10.246779441833496 1.915200591087341 0.000000000000000
11.829959869384766 -17.064258575439453 -0.083351828157902 1.000000000000000
11.831529617309570 -16.690494537353516 0.232106387615204 1.000000000000000
11.835311889648438 -16.941562652587891 0.274142712354660 1.000000000000000
11.835516929626465 -14.916122436523438 -0.844679176807404 0.000000000000000
11.837817192077637 -19.891258239746094 1.732326507568359 1.000000000000000
11.841108322143555 -9.879302978515625 0.975622117519379 0.000000000000000
11.841829299926758 -19.740877151489258 2.188214302062988 1.000000000000000
11.842155456542969 -19.037063598632812 1.202438831329346 1.000000000000000
11.843210220336914 -17.079551696777344 -0.043529871851206 1.000000000000000
11.844056129455566 -16.433067321777344 -1.327683687210083 0.000000000000000
11.847006797790527 -10.556037902832031 1.187522768974304 0.000000000000000
11.849010467529297 -18.260524749755859 -0.003799232887104 1.000000000000000
11.853199005126953 -18.062627792358398 1.491793274879456 0.000000000000000
11.854015350341797 -22.931367874145508 3.825699090957642 1.000000000000000
11.855839729309082 -19.019069671630859 1.850456476211548 1.000000000000000
11.858408927917480 -18.231079101562500 -0.922936856746674 0.000000000000000
11.861083984375000 -18.217096328735352 -0.880695343017578 1.000000000000000
11.861689567565918 -9.198217391967773 1.007503867149353 0.000000000000000
11.861983299255371 -21.808917999267578 1.810046553611755 1.000000000000000
11.871856689453125 -13.590758323669434 3.753525018692017 0.000000000000000
11.874675750732422 -16.058252334594727 0.073201037943363 0.000000000000000
11.875800132751465 -15.133798599243164 1.743943929672241 1.000000000000000
11.876596450805664 -17.740379333496094 0.365191668272018 1.000000000000000
11.878847122192383 -16.099130630493164 0.996018588542938 1.000000000000000
11.882161140441895 -10.961469650268555 3.362532854080200 0.000000000000000
11.883621215820312 -19.796443939208984 0.927365541458130 1.000000000000000
11.889456748962402 -19.953458786010742 -1.075050115585327 1.000000000000000
11.889759063720703 -17.795625686645508 0.283905088901520 1.000000000000000
11.894796371459961 -19.235277175903320 1.648907780647278 0.000000000000000
11.895681381225586 -12.976400375366211 1.595876693725586 0.000000000000000
11.901239395141602 -15.441805839538574 0.071456409990788 0.000000000000000
11.901516914367676 -18.814702987670898 -0.474117070436478 1.000000000000000
11.902668952941895 -19.134344100952148 1.555994987487793 0.000000000000000
11.903328895568848 -9.674263000488281 1.458052635192871 0.000000000000000
11.903787612915039 -18.918268203735352 2.242822647094727 1.000000000000000
11.908324241638184 -12.587418556213379 1.397202372550964 0.000000000000000
11.911372184753418 -18.217052459716797 -0.672604382038116 1.000000000000000
11.918709754943848 -15.074387550354004 1.401091814041138 1.000000000000000
11.918967247009277 -19.820034027099609 0.751064777374268 1.000000000000000
11.919278144836426 -17.240612030029297 0.117062121629715 1.000000000000000
11.919853210449219 -9.494393348693848 2.604846000671387 0.000000000000000
11.920825958251953 -16.038536071777344 2.269767761230469 0.000000000000000
11.923668861389160 -16.998435974121094 0.434932202100754 1.000000000000000
11.926256179809570 -16.522787094116211 -1.492846488952637 0.000000000000000
11.926988601684570 -19.467655181884766 3.038160085678101 0.000000000000000
11.932696342468262 -13.968429565429688 2.722673416137695 0.000000000000000
11.942766189575195 -10.384615898132324 1.797576427459717 0.000000000000000
11.944892883300781 -17.750432968139648 0.941621243953705 1.000000000000000
11.945248603820801 -19.316864013671875 0.955881357192993 1.000000000000000
11.946028709411621 -17.672101974487305 -0.208492323756218 0.000000000000000
11.946658134460449 -19.347814559936523 1.921434879302979 1.000000000000000
11.948328971862793 -17.107160568237305 0.236734911799431 1.000000000000000
11.948493003845215 -19.413642883300781 0.039786506444216 1.000000000000000
11.948827743530273 -15.666918754577637 1.132644772529602 0.000000000000000
11.951923370361328 -18.003400802612305 0.328151881694794 1.000000000000000
11.952976226806641 -19.649919509887695 0.084299221634865 1.000000000000000
11.956798553466797 -16.204776763916016 2.287373304367065 1.000000000000000
11.956927299499512 -13.662616729736328 1.428897261619568 0.000000000000000
11.959691047668457 -20.160043716430664 -0.589250564575195 0.000000000000000
11.965462684631348 -10.394820213317871 1.308682799339294 0.000000000000000
11.966564178466797 -15.068850517272949 2.560644388198853 0.000000000000000
11.969882011413574 -16.813411712646484 -0.201728940010071 1.000000000000000
11.971671104431152 -16.788619995117188 0.075576081871986 1.000000000000000
11.972811698913574 -12.753762245178223 1.863291501998901 0.000000000000000
11.973670005798340 -15.586359024047852 0.827208280563354 1.000000000000000
11.973958969116211 -16.868316650390625 -0.639245927333832 1.000000000000000
11.975813865661621 -15.520628929138184 1.051410913467407 0.000000000000000
11.978512763977051 -18.415725708007812 1.771418571472168 1.000000000000000
11.981977462768555 -14.567389488220215 -0.474154680967331 0.000000000000000
11.982519149780273 -14.532856941223145 -0.401130110025406 0.000000000000000
11.985057830810547 -16.380903244018555 2.161977291107178 1.000000000000000
11.990878105163574 -9.477302551269531 1.261944174766541 1.000000000000000
11.992009162902832 -20.150346755981445 -1.130427241325378 1.000000000000000
11.993160247802734 -12.232481002807617 1.447559475898743 0.000000000000000
11.995821952819824 -17.630132675170898 -0.577015817165375 0.000000000000000
12.004687309265137 -20.012369155883789 -1.484586000442505 0.000000000000000
12.008431434631348 -20.360260009765625 -0.821317374706268 1.000000000000000
12.017815589904785 -16.225742340087891 -0.119821041822433 0.000000000000000
12.024229049682617 -19.258491516113281 -0.003962595481426 0.000000000000000
12.028878211975098 -20.624607086181641 -1.380868554115295 1.000000000000000
12.030297279357910 -15.632379531860352 0.640579700469971 0.000000000000000
12.030478477478027 -17.750249862670898 1.770474195480347 1.000000000000000
12.030609130859375 -15.651426315307617 0.868810057640076 1.000000000000000
12.032835006713867 -15.007619857788086 -0.077218048274517 0.000000000000000
12.035573005676270 -18.834703445434570 2.242822647094727 1.000000000000000
12.037218093872070 -9.265220642089844 2.021394729614258 0.000000000000000
12.039634704589844 -18.453268051147461 1.606441736221313 1.000000000000000
12.042673110961914 -15.296916007995605 0.370414733886719 0.000000000000000
12.043417930603027 -15.333067893981934 -0.939936101436615 0.000000000000000
12.045324325561523 -17.246034622192383 -0.407585680484772 1.000000000000000
12.046817779541016 -19.744375228881836 0.351231247186661 0.000000000000000
12.054506301879883 -15.960906028747559 1.303958535194397 0.000000000000000
12.055657386779785 -15.044689178466797 -0.706930458545685 0.000000000000000
12.055966377258301 -10.754313468933105 2.394287347793579 0.000000000000000
12.063308715820312 -16.230236053466797 1.630605220794678 0.000000000000000
12.063431739807129 -16.251716613769531 0.812909603118896 1.000000000000000
12.066882133483887 -20.715513229370117 -0.326388865709305 1.000000000000000
12.068850517272949 -20.416259765625000 -0.732896566390991 1.000000000000000
12.069359779357910 -16.333448410034180 1.323995471000671 1.000000000000000
12.075212478637695 -18.896736145019531 -1.383380651473999 1.000000000000000
12.077284812927246 -14.999121665954590 -0.854251563549042 0.000000000000000
12.077870368957520 -15.836114883422852 -0.385889083147049 0.000000000000000
12.080740928649902 -16.307126998901367 1.166619658470154 0.000000000000000
12.083706855773926 -14.760250091552734 -0.113198593258858 0.000000000000000
12.087156295776367 -18.938005447387695 -1.429225087165833 0.000000000000000
12.089548110961914 -19.103097915649414 2.767805099487305 1.000000000000000
12.094953536987305 -16.936483383178711 -0.083544500172138 1.000000000000000
12.095808029174805 -17.473775863647461 0.077892474830151 1.000000000000000
12.102380752563477 -19.680606842041016 2.318302154541016 1.000000000000000
12.106060028076172 -15.332228660583496 0.146614670753479 1.000000000000000
12.106794357299805 -16.701549530029297 -0.994444668292999 1.000000000000000
12.109861373901367 -12.184489250183105 1.451601147651672 0.000000000000000
12.114836692810059 -12.595335960388184 1.240435123443604 0.000000000000000
12.120056152343750 -10.402462959289551 1.010474801063538 0.000000000000000
12.120883941650391 -15.787115097045898 -0.423869341611862 1.000000000000000
12.121972084045410 -19.186925888061523 1.217220187187195 1.000000000000000
12.123271942138672 -13.493591308593750 3.773074865341187 0.000000000000000
12.126701354980469 -20.032239913940430 -0.723630368709564 1.000000000000000
12.130227088928223 -16.962705612182617 -0.965196430683136 1.000000000000000
12.133636474609375 -19.741466522216797 2.019154071807861 1.000000000000000
12.134770393371582 -21.581516265869141 3.031266689300537 0.000000000000000
12.136611938476562 -19.736272811889648 0.351838558912277 0.000000000000000
12.139080047607422 -19.339353561401367 1.989639639854431 1.000000000000000
12.144412040710449 -16.579872131347656 2.334321498870850 1.000000000000000
12.147179603576660 -20.419191360473633 1.961707830429077 1.000000000000000
12.147941589355469 -15.822356224060059 0.801191151142120 0.000000000000000
12.153569221496582 -12.143390655517578 2.286270856857300 0.000000000000000
12.153579711914062 -21.349031448364258 2.790261268615723 1.000000000000000
12.155202865600586 -8.874129295349121 3.130381345748901 0.000000000000000
12.156341552734375 -18.958728790283203 1.511657595634460 1.000000000000000
12.163590431213379 -15.467716217041016 0.941734850406647 1.000000000000000
12.167738914489746 -17.056018829345703 0.157241538167000 0.000000000000000
12.173923492431641 -20.294494628906250 1.771134376525879 1.000000000000000
12.175174713134766 -22.199764251708984 -0.490575075149536 1.000000000000000
12.175627708435059 -14.908593177795410 1.291994571685791 0.000000000000000
12.176093101501465 -16.188770294189453 1.925522804260254 1.000000000000000
12.188978195190430 -16.333723068237305 1.847591161727905 1.000000000000000
12.191783905029297 -18.090038299560547 0.960087835788727 1.000000000000000
12.192317962646484 -17.253005981445312 2.586492776870728 0.000000000000000
12.195207595825195 -15.328182220458984 -0.116236850619316 0.000000000000000
12.199585914611816 -18.945299148559570 0.342181682586670 0.000000000000000
12.200302124023438 -14.757591247558594 2.039537429809570 0.000000000000000
12.201024055480957 -10.558053970336914 1.619017720222473 0.000000000000000
12.208591461181641 -11.213011741638184 1.144608259201050 0.000000000000000
12.209149360656738 -16.173879623413086 2.481010913848877 1.000000000000000
12.213228225708008 -11.029304504394531 2.438853979110718 0.000000000000000
12.219916343688965 -15.010889053344727 -0.040539078414440 0.000000000000000
12.222694396972656 -14.815719604492188 0.217903181910515 0.000000000000000
12.229190826416016 -10.708864212036133 1.310721158981323 0.000000000000000
12.231352806091309 -16.271697998046875 -0.394412755966187 0.000000000000000
12.231875419616699 -12.655864715576172 2.342200756072998 0.000000000000000
12.235941886901855 -21.320268630981445 2.792067050933838 1.000000000000000
12.236994743347168 -15.008852005004883 0.331258505582809 0.000000000000000
12.244351387023926 -18.767040252685547 0.943098247051239 0.000000000000000
12.244521141052246 -14.030224800109863 3.183101415634155 0.000000000000000
12.248277664184570 -15.611825942993164 0.187022536993027 0.000000000000000
12.249193191528320 -9.573906898498535 0.953605592250824 0.000000000000000
12.251596450805664 -15.468199729919434 2.101816654205322 1.000000000000000
12.254080772399902 -17.330137252807617 2.824465274810791 0.000000000000000
12.262736320495605 -17.403518676757812 -0.657901942729950 0.000000000000000
12.262913703918457 -16.088052749633789 1.123882532119751 1.000000000000000
12.271260261535645 -11.162855148315430 3.450505971908569 0.000000000000000
12.273792266845703 -19.141901016235352 -0.222253695130348 1.000000000000000
12.278216361999512 -14.681456565856934 2.836435794830322 0.000000000000000
12.292932510375977 -18.514968872070312 -1.456658720970154 1.000000000000000
12.295063972473145 -16.459692001342773 2.061511754989624 1.000000000000000
12.297642707824707 -8.930170059204102 2.022450208663940 0.000000000000000
12.298171997070312 -17.210882186889648 -1.345675945281982 0.000000000000000
12.301148414611816 -17.168128967285156 2.398875236511230 1.000000000000000
12.303223609924316 -14.977122306823730 -0.822536528110504 1.000000000000000
12.303429603576660 -20.927148818969727 2.757307291030884 1.000000000000000
12.309606552124023 -16.425878524780273 0.745496809482574 1.000000000000000
12.318265914916992 -18.816392898559570 -0.306186914443970 1.000000000000000
12.320466995239258 -18.697748184204102 -1.467646360397339 1.000000000000000
12.328487396240234 -16.400917053222656 0.863539516925812 0.000000000000000
12.330102920532227 -19.071109771728516 -0.527256488800049 1.000000000000000
12.340458869934082 -17.541770935058594 -0.127274245023727 0.000000000000000
12.343487739562988 -15.974064826965332 0.151507839560509 0.000000000000000
12.343619346618652 -16.549379348754883 1.704645037651062 0.000000000000000
12.346219062805176 -16.166303634643555 -0.315999418497086 1.000000000000000
12.352504730224609 -18.748504638671875 -1.039172053337097 0.000000000000000
12.355360031127930 -16.991970062255859 -0.891561806201935 0.000000000000000
12.359541893005371 -16.683464050292969 1.882260680198669 1.000000000000000
12.365443229675293 -14.637187004089355 0.327769428491592 0.000000000000000
12.365814208984375 -17.066392898559570 -1.097141385078430 1.000000000000000
12.372623443603516 -16.044157028198242 2.480525016784668 0.000000000000000
12.379564285278320 -9.931385993957520 1.438780903816223 0.000000000000000
12.380912780761719 -15.441750526428223 -0.383486986160278 1.000000000000000
12.381224632263184 -15.197661399841309 -0.605764031410217 0.000000000000000
12.382568359375000 -16.593143463134766 -0.401154160499573 0.000000000000000
12.385371208190918 -16.060686111450195 -0.509839415550232 0.000000000000000
12.391238212585449 -11.811980247497559 1.823466777801514 0.000000000000000
12.393414497375488 -13.186570167541504 2.408155918121338 0.000000000000000
12.397053718566895 -18.793270111083984 -0.998724520206451 1.000000000000000
12.415391921997070 -16.170703887939453 0.192149519920349 0.000000000000000
12.417290687561035 -18.358201980590820 -0.174073874950409 1.000000000000000
12.418392181396484 -18.810609817504883 1.122111916542053 1.000000000000000
12.421010017395020 -16.369413375854492 1.617199063301086 1.000000000000000
12.427145957946777 -18.383831024169922 1.489423513412476 1.000000000000000
12.427535057067871 -20.099916458129883 2.893216609954834 1.000000000000000
12.428579330444336 -14.528360366821289 2.833503723144531 0.000000000000000
12.430541992187500 -14.830430984497070 0.591225683689117 0.000000000000000
12.430947303771973 -14.432934761047363 3.962054252624512 0.000000000000000
12.431922912597656 -15.380665779113770 1.480074882507324 0.000000000000000
12.438997268676758 -17.523439407348633 0.326329827308655 0.000000000000000
12.439055442810059 -14.415361404418945 2.028098344802856 0.000000000000000
12.440114974975586 -14.530034065246582 1.919338583946228 0.000000000000000
12.445034980773926 -18.976053237915039 1.523176550865173 1.000000000000000
12.449774742126465 -12.647327423095703 1.780759572982788 0.000000000000000
