# This PCD file was generated using the MATLAB® pcwrite function
# from Computer Vision Toolbox®.
# .PCD v.7 - Point Cloud Data file format
VERSION .7
FIELDS x y z intensity
SIZE 8 8 8 8
TYPE F F F F
COUNT 1 1 1 1
WIDTH 630
HEIGHT 1
VIEWPOINT 0 0 0 1 0 0 0
POINTS 630
DATA ascii
-0.328482061624527 -2.416165828704834 0.088559500873089 0.000000000000000
-0.325514376163483 -1.733013629913330 0.128561884164810 0.000000000000000
-0.323194056749344 -2.441074609756470 0.089430585503578 0.000000000000000
-0.322560131549835 -1.684847831726074 0.125071510672569 0.000000000000000
-0.310483485460281 -1.879753470420837 0.202936947345734 0.000000000000000
-0.303285270929337 -1.876899123191833 0.202513262629509 0.000000000000000
-0.287172675132751 1.599560499191284 0.096550777554512 0.000000000000000
-0.282970756292343 1.608418464660645 0.097025230526924 0.000000000000000
-0.185195580124855 -1.718159675598145 0.115992873907089 0.000000000000000
-0.183749243617058 -1.762460350990295 0.118939571082592 0.000000000000000
-0.159495756030083 -1.998048901557922 0.174657717347145 0.000000000000000
-0.152823239564896 -2.002566814422607 0.175004944205284 0.000000000000000
0.082992136478424 -2.598947525024414 0.696740925312042 0.000000000000000
0.091609872877598 -2.598658323287964 0.696740925312042 0.000000000000000
0.232220038771629 -2.644186735153198 0.711234748363495 0.000000000000000
0.236528292298317 -2.589492321014404 0.696740925312042 0.000000000000000
0.443879216909409 -1.675042986869812 0.196821540594101 0.000000000000000
0.513675332069397 -1.911455631256104 0.224809914827347 0.000000000000000
0.794893741607666 -1.974770307540894 0.315485328435898 0.000000000000000
0.798128545284271 -1.677981734275818 0.227490827441216 0.000000000000000
0.932057619094849 -1.869745254516602 0.309621274471283 0.000000000000000
0.940356433391571 -1.870015501976013 0.310207694768906 0.000000000000000
0.984548807144165 -2.708113431930542 0.289138823747635 0.000000000000000
1.002037644386292 -2.139315605163574 0.289224445819855 0.000000000000000
1.073812246322632 -1.843217134475708 0.283871173858643 1.000000000000000
1.081259012222290 -1.870985150337219 0.287564635276794 1.000000000000000
1.100215554237366 -2.412194013595581 0.551461935043335 1.000000000000000
1.112696528434753 -1.707133412361145 0.301998049020767 0.000000000000000
1.133431196212769 -2.684252262115479 0.498054623603821 0.000000000000000
1.140167832374573 -2.672827243804932 0.496706724166870 1.000000000000000
1.142430424690247 -1.878303170204163 0.589072167873383 1.000000000000000
1.145907878875732 -1.197365522384644 0.188244447112083 0.000000000000000
1.159949302673340 -2.494449853897095 0.737116634845734 0.000000000000000
1.179167866706848 -1.927094697952271 0.386177659034729 0.000000000000000
1.182220220565796 -2.518161296844482 0.745398879051208 0.000000000000000
1.200021028518677 -2.173296213150024 0.216325551271439 0.000000000000000
1.202264189720154 -1.247941732406616 0.196821540594101 0.000000000000000
1.204626679420471 -2.041707992553711 0.252506077289581 0.000000000000000
1.205646991729736 -2.027234792709351 0.251235097646713 0.000000000000000
1.215432524681091 -2.205754041671753 0.219450637698174 0.000000000000000
1.228407263755798 -2.562505960464478 0.322769254446030 0.000000000000000
1.299280166625977 -2.071551084518433 0.362397640943527 0.000000000000000
1.350658297538757 -1.877495408058167 0.182025119662285 0.000000000000000
1.363541245460510 -1.797441005706787 0.300228029489517 0.000000000000000
1.364992499351501 -1.786369442939758 0.299172759056091 0.000000000000000
1.400541305541992 -0.174893468618393 0.113808013498783 0.000000000000000
1.401143312454224 -0.170003592967987 0.113808013498783 0.000000000000000
1.487736344337463 -2.585268020629883 0.799233198165894 0.000000000000000
1.494248390197754 -1.661629319190979 0.154304429888725 0.000000000000000
1.504665732383728 -2.365312099456787 0.479183822870255 0.000000000000000
1.520334243774414 -1.702553153038025 0.157610967755318 1.000000000000000
1.572284340858459 -0.842274367809296 0.033936928957701 0.000000000000000
1.661366224288940 -1.177227258682251 0.124894417822361 0.000000000000000
1.699262380599976 -1.200119733810425 0.123594492673874 0.000000000000000
1.758645892143250 -1.109708786010742 0.432535111904144 0.000000000000000
1.812212467193604 -2.296471118927002 0.608481585979462 0.000000000000000
2.006760120391846 -1.375704169273376 0.231274694204330 0.000000000000000
2.028157711029053 -1.400804638862610 0.234302848577499 0.000000000000000
2.079178094863892 -1.158872246742249 0.132247582077980 0.000000000000000
2.090201377868652 -1.155472040176392 0.132691368460655 0.000000000000000
2.148041963577271 -1.663131952285767 0.289365202188492 0.000000000000000
2.170950889587402 -1.259164929389954 0.178135529160500 0.000000000000000
2.191676139831543 -1.684712171554565 0.294449210166931 0.000000000000000
2.299838542938232 -1.551318883895874 0.743328332901001 0.000000000000000
2.345537900924683 -1.594086050987244 0.759892761707306 0.000000000000000
2.459062814712524 -1.646882653236389 0.793021559715271 0.000000000000000
2.677797079086304 -1.334633469581604 0.622329235076904 0.000000000000000
2.826901674270630 -0.984209954738617 0.252935588359833 0.000000000000000
-26.030414581298828 -14.434236526489258 0.451990783214569 0.000000000000000
-25.613908767700195 -15.157683372497559 0.737784087657928 1.000000000000000
-25.586223602294922 -15.379222869873047 0.453326970338821 1.000000000000000
-25.461311340332031 -28.979972839355469 2.887011766433716 0.000000000000000
-25.429260253906250 -15.611170768737793 0.739667415618896 1.000000000000000
-25.402988433837891 -15.756048202514648 0.453934311866760 1.000000000000000
-25.387271881103516 -15.746298789978027 0.912735104560852 1.000000000000000
-25.286079406738281 -14.709765434265137 0.388054907321930 1.000000000000000
-25.277032852172852 -15.842731475830078 0.166612461209297 1.000000000000000
-25.012931823730469 -28.437582015991211 2.688175916671753 0.000000000000000
-24.376989364624023 -16.484617233276367 0.164356112480164 1.000000000000000
-24.297115325927734 -16.511680603027344 0.446099489927292 1.000000000000000
-24.296159744262695 -16.553844451904297 0.164199724793434 1.000000000000000
-24.216230392456055 -16.580575942993164 0.445674329996109 1.000000000000000
-24.211948394775391 -13.871365547180176 -0.004870167002082 1.000000000000000
-24.077602386474609 -12.824397087097168 0.047612559050322 1.000000000000000
-23.942888259887695 -12.786456108093262 0.203711539506912 1.000000000000000
-23.863592147827148 -13.341835975646973 -0.004771730396897 1.000000000000000
-23.658235549926758 -13.011068344116211 -0.004712389316410 1.000000000000000
-23.299558639526367 -11.779162406921387 0.797666013240814 0.000000000000000
-23.290662765502930 -31.461746215820312 0.519263505935669 0.000000000000000
-23.266443252563477 -12.364738464355469 -0.055183079093695 1.000000000000000
-23.136800765991211 -11.595645904541016 0.790703296661377 0.000000000000000
-21.992544174194336 -29.331815719604492 1.049648523330688 0.000000000000000
-21.959369659423828 -9.847748756408691 0.920331716537476 1.000000000000000
-21.944252014160156 -9.861222267150879 1.986393690109253 1.000000000000000
-21.943273544311523 -9.828574180603027 1.243255019187927 1.000000000000000
-21.927070617675781 -9.818560600280762 1.566259503364563 1.000000000000000
-21.923181533813477 -9.745250701904297 -0.142370551824570 0.000000000000000
-21.914419174194336 -9.756015777587891 -0.050240308046341 1.000000000000000
-21.847379684448242 -10.330947875976562 -0.236210510134697 0.000000000000000
-21.800785064697266 -29.235223770141602 0.483768731355667 0.000000000000000
-21.604207992553711 -22.746999740600586 -0.186164095997810 0.000000000000000
-21.575496673583984 -22.932226181030273 0.780506789684296 0.000000000000000
-21.437059402465820 -28.127941131591797 2.101106405258179 0.000000000000000
-21.367536544799805 -27.608509063720703 2.545350551605225 0.000000000000000
-21.068138122558594 -29.691823959350586 0.972427308559418 0.000000000000000
-21.053112030029297 -22.221052169799805 0.758798480033875 0.000000000000000
-21.052072525024414 -29.234565734863281 0.408715963363647 0.000000000000000
-20.790519714355469 -9.453324317932129 2.432701110839844 1.000000000000000
-20.724281311035156 -28.992250442504883 0.404314368963242 0.000000000000000
-20.669158935546875 -9.228883743286133 2.411094188690186 1.000000000000000
-20.510452270507812 -25.599399566650391 0.939177334308624 0.000000000000000
-20.377449035644531 -25.592287063598633 1.880548596382141 0.000000000000000
-20.280221939086914 -25.470176696777344 0.369373589754105 0.000000000000000
-20.267694473266602 -9.106110572814941 0.166757673025131 1.000000000000000
-20.211774826049805 -29.994546890258789 0.896581590175629 0.000000000000000
-20.157209396362305 -24.414434432983398 2.247226715087891 0.000000000000000
-20.029428482055664 -19.541807174682617 0.210015609860420 0.000000000000000
-20.028165817260742 -8.942678451538086 -0.298618018627167 0.000000000000000
-19.966896057128906 -25.100034713745117 0.425459682941437 0.000000000000000
-19.915233612060547 -33.471836090087891 3.702287673950195 0.000000000000000
-19.892627716064453 -19.675779342651367 -0.166035681962967 1.000000000000000
-19.873107910156250 -19.667453765869141 -0.112238340079784 0.000000000000000
-19.847738265991211 -20.494163513183594 1.694976329803467 0.000000000000000
-19.839887619018555 -9.357522010803223 2.336528539657593 1.000000000000000
-19.808641433715820 -23.822372436523438 2.199081897735596 0.000000000000000
-19.763395309448242 -11.477650642395020 1.622194528579712 1.000000000000000
-19.729587554931641 -22.156459808349609 2.585142374038696 0.000000000000000
-19.718679428100586 -12.712206840515137 -0.364461749792099 0.000000000000000
-19.658491134643555 -12.576485633850098 -0.362535715103149 0.000000000000000
-19.622135162353516 -11.645214080810547 1.179842591285706 1.000000000000000
-19.594495773315430 -11.631587028503418 1.925476431846619 1.000000000000000
-19.593214035034180 -11.581858634948730 1.703369855880737 1.000000000000000
-19.570861816406250 -19.898771286010742 -1.452942967414856 1.000000000000000
-19.568738937377930 -11.567390441894531 1.350524902343750 0.000000000000000
-19.561567306518555 -26.821666717529297 1.333338737487793 0.000000000000000
-19.544008255004883 -9.158410072326660 1.448705434799194 0.000000000000000
-19.514936447143555 -26.311401367187500 0.308751165866852 0.000000000000000
-19.513746261596680 -10.678153038024902 1.836632490158081 0.000000000000000
-19.493432998657227 -11.584479331970215 0.083111695945263 0.000000000000000
-19.471250534057617 -19.677606582641602 -0.536370337009430 1.000000000000000
-19.470386505126953 -26.492145538330078 1.320496678352356 0.000000000000000
-19.438039779663086 -24.588121414184570 2.841447830200195 0.000000000000000
-19.423795700073242 -19.629648208618164 -0.959523200988770 0.000000000000000
-19.421041488647461 -19.609064102172852 0.260120004415512 0.000000000000000
-19.419414520263672 -10.356807708740234 1.774633646011353 0.000000000000000
-19.419002532958984 -10.332228660583496 1.916720867156982 1.000000000000000
-19.402750015258789 -20.016492843627930 -1.397554039955139 1.000000000000000
-19.387788772583008 -19.575487136840820 -0.163495898246765 0.000000000000000
-19.371082305908203 -19.662672042846680 1.002464532852173 0.000000000000000
-19.367729187011719 -19.572986602783203 1.158898949623108 0.000000000000000
-19.348258972167969 -19.949127197265625 2.421596288681030 0.000000000000000
-19.337137222290039 -19.558452606201172 2.396595478057861 0.000000000000000
-19.330879211425781 -19.960470199584961 2.641300916671753 0.000000000000000
-19.328317642211914 -20.175117492675781 0.156045585870743 1.000000000000000
-19.305599212646484 29.276247024536133 1.745816946029663 0.000000000000000
-19.289060592651367 -19.493484497070312 -0.110086709260941 0.000000000000000
-19.287448883056641 -19.560018539428711 1.367536664009094 0.000000000000000
-19.285161972045898 -19.489545822143555 0.311063408851624 0.000000000000000
-19.284353256225586 28.979185104370117 1.465023159980774 0.000000000000000
-19.277240753173828 -19.628990173339844 2.615183115005493 0.000000000000000
-19.268217086791992 -19.454759597778320 -1.004037618637085 0.000000000000000
-19.261430740356445 -19.750326156616211 2.622375011444092 0.000000000000000
-19.259134292602539 -19.413034439086914 -1.107872366905212 0.000000000000000
-19.245563507080078 -19.993511199951172 -0.964245796203613 1.000000000000000
-19.242860794067383 -19.110328674316406 0.932833015918732 1.000000000000000
-19.212488174438477 -19.334259033203125 1.304470062255859 0.000000000000000
-19.175642013549805 -19.475162506103516 3.637033224105835 0.000000000000000
-19.164916992187500 -19.226556777954102 -0.525986969470978 1.000000000000000
-19.154130935668945 -19.215736389160156 -0.942716240882874 0.000000000000000
-19.149589538574219 -27.374885559082031 2.371269941329956 0.000000000000000
-19.147762298583984 -19.311546325683594 2.297975540161133 0.000000000000000
-19.146600723266602 -19.381290435791016 2.091515779495239 0.000000000000000
-19.128585815429688 -25.618152618408203 -0.128343507647514 0.000000000000000
-19.074249267578125 -9.332819938659668 1.712264180183411 0.000000000000000
-19.057653427124023 -8.546464920043945 1.442195415496826 0.000000000000000
-19.036115646362305 -19.237859725952148 1.973221182823181 0.000000000000000
-18.988229751586914 -8.440611839294434 1.474928259849548 1.000000000000000
-18.980342864990234 -19.030767440795898 -0.985569179058075 0.000000000000000
-18.973369598388672 -25.998004913330078 0.426945269107819 0.000000000000000
-18.941387176513672 -9.360591888427734 1.744471669197083 1.000000000000000
-18.894309997558594 -18.829778671264648 -0.516843438148499 0.000000000000000
-18.868053436279297 -18.928737640380859 2.422886848449707 0.000000000000000
-18.815872192382812 -18.686281204223633 -0.310110032558441 1.000000000000000
-18.807174682617188 -18.742940902709961 -0.922575712203979 0.000000000000000
-18.798994064331055 -18.604454040527344 1.113148570060730 0.000000000000000
-18.774030685424805 -26.576457977294922 3.695820808410645 0.000000000000000
-18.773344039916992 -8.418965339660645 1.738553285598755 1.000000000000000
-18.757129669189453 34.876571655273438 -0.767283916473389 0.000000000000000
-18.739419937133789 -18.816770553588867 2.524338722229004 0.000000000000000
-18.736389160156250 -18.694580078125000 2.306315183639526 0.000000000000000
-18.722705841064453 -18.610630035400391 -1.475920557975769 1.000000000000000
-18.706253051757812 -26.677623748779297 3.700786352157593 0.000000000000000
-18.705163955688477 -18.447092056274414 0.499846845865250 0.000000000000000
-18.703487396240234 -18.629213333129883 -0.967980146408081 0.000000000000000
-18.683006286621094 35.096229553222656 0.832838177680969 0.000000000000000
-18.668861389160156 35.277191162109375 0.529450356960297 0.000000000000000
-18.660490036010742 -18.403034210205078 0.901481926441193 0.000000000000000
-18.659019470214844 -9.231592178344727 1.759097933769226 1.000000000000000
-18.651767730712891 -9.147097587585449 1.755393266677856 0.000000000000000
-18.649431228637695 -8.441711425781250 1.729796528816223 1.000000000000000
-18.624107360839844 -19.213218688964844 2.425776004791260 0.000000000000000
-18.608562469482422 -18.287860870361328 0.696879506111145 0.000000000000000
-18.595569610595703 -18.471998214721680 2.012215375900269 0.000000000000000
-18.592117309570312 -18.528617858886719 2.379549980163574 0.000000000000000
-18.565193176269531 -24.272611618041992 1.874395728111267 0.000000000000000
-18.559930801391602 -18.367864608764648 -0.907296717166901 0.000000000000000
-18.539255142211914 -9.372575759887695 -0.961497664451599 0.000000000000000
-18.536203384399414 -27.032970428466797 2.642982482910156 0.000000000000000
-18.522720336914062 -18.341281890869141 1.950845003128052 0.000000000000000
-18.511692047119141 34.710132598876953 1.050712823867798 0.000000000000000
-18.510032653808594 -21.395723342895508 0.701306223869324 0.000000000000000
-18.485900878906250 35.388839721679688 0.682972729206085 0.000000000000000
-18.479076385498047 -18.141599655151367 0.094913594424725 1.000000000000000
-18.462270736694336 -22.394941329956055 -0.060787677764893 0.000000000000000
-18.460258483886719 -18.259023666381836 -1.351671576499939 1.000000000000000
-18.456827163696289 -18.128612518310547 0.243834257125854 0.000000000000000
-18.450128555297852 -26.947757720947266 2.129113674163818 0.000000000000000
-18.448982238769531 -19.458848953247070 2.336524248123169 0.000000000000000
-18.444059371948242 -18.391344070434570 2.475888490676880 0.000000000000000
-18.442255020141602 -8.577828407287598 1.718682169914246 1.000000000000000
-18.428213119506836 -18.301292419433594 1.292954564094543 0.000000000000000
-18.423461914062500 -26.774265289306641 1.430370926856995 0.000000000000000
-18.422218322753906 -18.253229141235352 2.259786128997803 0.000000000000000
-18.413156509399414 -18.212434768676758 -0.949658334255219 0.000000000000000
-18.386936187744141 -9.033944129943848 1.785119891166687 1.000000000000000
-18.377193450927734 -8.323119163513184 -1.361185431480408 0.000000000000000
-18.364883422851562 -26.889640808105469 1.934574127197266 0.000000000000000
-18.352424621582031 -18.085947036743164 1.233146786689758 0.000000000000000
-18.346944808959961 -12.363995552062988 1.927832126617432 1.000000000000000
-18.344762802124023 -12.481605529785156 0.720554828643799 0.000000000000000
-18.343679428100586 -10.204932212829590 -1.173591375350952 1.000000000000000
-18.333505630493164 -17.892169952392578 1.078162908554077 0.000000000000000
-18.317522048950195 34.636684417724609 1.046547532081604 0.000000000000000
-18.305856704711914 -26.280891418457031 0.055899374186993 0.000000000000000
-18.297462463378906 -17.844528198242188 -0.298884332180023 1.000000000000000
-18.297100067138672 -8.819175720214844 1.716324567794800 0.000000000000000
-18.296234130859375 -9.317573547363281 -0.989822089672089 0.000000000000000
-18.292852401733398 -9.328317642211914 -0.950401365756989 0.000000000000000
-18.290449142456055 -25.275630950927734 3.130606412887573 0.000000000000000
-18.287199020385742 -19.389633178710938 1.891805171966553 0.000000000000000
-18.282718658447266 -17.842603683471680 0.289826661348343 1.000000000000000
-18.273235321044922 -17.958312988281250 -0.890211939811707 0.000000000000000
-18.268085479736328 -17.963279724121094 1.917410492897034 0.000000000000000
-18.266511917114258 -18.107164382934570 1.974555134773254 0.000000000000000
-18.241424560546875 -19.584831237792969 3.561580657958984 0.000000000000000
-18.237806320190430 -12.595988273620605 0.379148036241531 0.000000000000000
-18.232799530029297 -10.207098960876465 -0.926931202411652 0.000000000000000
-18.230049133300781 -23.946828842163086 1.382454752922058 0.000000000000000
-18.216699600219727 -18.038261413574219 2.436901092529297 0.000000000000000
-18.211788177490234 -17.683004379272461 0.629242718219757 0.000000000000000
-18.211044311523438 -17.959789276123047 -1.479254484176636 1.000000000000000
-18.203577041625977 -9.505279541015625 -0.082436576485634 0.000000000000000
-18.197666168212891 -12.585635185241699 -0.896401822566986 1.000000000000000
-18.195829391479492 -20.553636550903320 1.577989697456360 0.000000000000000
-18.192913055419922 33.827476501464844 -0.449168413877487 0.000000000000000
-18.183893203735352 -19.967031478881836 1.084682106971741 0.000000000000000
-18.174232482910156 -17.761518478393555 -1.273981332778931 1.000000000000000
-18.160753250122070 -19.964004516601562 1.603407263755798 0.000000000000000
-18.145765304565430 -19.374721527099609 1.884158611297607 0.000000000000000
-18.142911911010742 -26.428731918334961 2.522930860519409 0.000000000000000
-18.137144088745117 -12.620200157165527 1.397895097732544 1.000000000000000
-18.136465072631836 -26.232473373413086 3.396969556808472 0.000000000000000
-18.132471084594727 -21.706205368041992 0.701107978820801 0.000000000000000
-18.115159988403320 -17.917688369750977 2.220201730728149 0.000000000000000
-18.096567153930664 28.489227294921875 -1.302477359771729 0.000000000000000
-18.091672897338867 -12.692418098449707 -0.598006069660187 0.000000000000000
-18.087186813354492 -19.584430694580078 1.481128573417664 0.000000000000000
-18.081102371215820 -17.523036956787109 0.672528803348541 0.000000000000000
-18.078542709350586 -10.098786354064941 -0.998296856880188 1.000000000000000
-18.064773559570312 -17.782604217529297 2.543543100357056 1.000000000000000
-18.049459457397461 -12.727304458618164 0.335379362106323 1.000000000000000
-18.042119979858398 -12.618219375610352 2.092827796936035 1.000000000000000
-18.039546966552734 -26.246728897094727 0.483633786439896 0.000000000000000
-18.009695053100586 33.783065795898438 0.140317872166634 0.000000000000000
-17.997571945190430 -8.245256423950195 -1.373882412910461 0.000000000000000
-17.979169845581055 -18.506477355957031 1.731856465339661 0.000000000000000
-17.972318649291992 -12.305441856384277 -0.338366657495499 1.000000000000000
-17.971118927001953 -27.287773132324219 0.370689570903778 0.000000000000000
-17.964391708374023 -17.664653778076172 2.394885540008545 0.000000000000000
-17.961259841918945 -12.337051391601562 -0.505902528762817 0.000000000000000
-17.960886001586914 -8.876040458679199 2.452817678451538 1.000000000000000
-17.957725524902344 -12.189407348632812 -0.045456714928150 0.000000000000000
-17.956596374511719 32.836494445800781 0.424598127603531 0.000000000000000
-17.951494216918945 -23.194717407226562 1.234420776367188 0.000000000000000
-17.941051483154297 -18.015106201171875 1.902782797813416 0.000000000000000
-17.934553146362305 -7.984230518341064 1.866095423698425 1.000000000000000
-17.930704116821289 -17.519849777221680 2.184436798095703 0.000000000000000
-17.922574996948242 32.774280548095703 0.997739195823669 0.000000000000000
-17.905162811279297 -12.245242118835449 -0.045431584119797 0.000000000000000
-17.886112213134766 33.599254608154297 0.212588399648666 0.000000000000000
-17.884565353393555 -17.444288253784180 -0.916092753410339 0.000000000000000
-17.870216369628906 -19.321065902709961 2.223879575729370 0.000000000000000
-17.869152069091797 -22.779554367065430 -0.060636881738901 0.000000000000000
-17.864686965942383 -10.009618759155273 -1.184327483177185 1.000000000000000
-17.840082168579102 -27.716382980346680 1.894781231880188 0.000000000000000
-17.836414337158203 -17.333654403686523 1.190314650535583 0.000000000000000
-17.833688735961914 -17.359476089477539 -1.008290171623230 0.000000000000000
-17.811985015869141 -23.181180953979492 1.230384111404419 0.000000000000000
-17.796762466430664 -19.992910385131836 1.075050592422485 0.000000000000000
-17.790128707885742 -17.361871719360352 2.253512382507324 0.000000000000000
-17.788942337036133 -17.790185928344727 2.857523679733276 0.000000000000000
-17.786161422729492 -18.962875366210938 3.459745645523071 0.000000000000000
-17.779512405395508 -17.380014419555664 2.494820594787598 0.000000000000000
-17.777963638305664 -22.805576324462891 1.662237763404846 0.000000000000000
-17.764238357543945 -19.925540924072266 0.713006556034088 0.000000000000000
-17.763738632202148 -17.215469360351562 -0.859514951705933 0.000000000000000
-17.751935958862305 -17.877553939819336 2.861586570739746 0.000000000000000
-17.738853454589844 -9.341566085815430 -0.388446182012558 0.000000000000000
-17.724922180175781 32.954586029052734 0.280831336975098 0.000000000000000
-17.721904754638672 -17.553211212158203 3.696690559387207 0.000000000000000
-17.694805145263672 -17.450674057006836 2.822763919830322 0.000000000000000
-17.693397521972656 32.101833343505859 0.979049026966095 0.000000000000000
-17.688343048095703 -23.187349319458008 1.676470518112183 0.000000000000000
-17.674184799194336 -19.982654571533203 1.996518969535828 0.000000000000000
-17.663263320922852 -19.691562652587891 2.514497280120850 0.000000000000000
-17.661289215087891 32.565990447998047 0.989515542984009 0.000000000000000
-17.652383804321289 -18.742742538452148 3.815730571746826 0.000000000000000
-17.650802612304688 -17.106019973754883 -0.098670192062855 0.000000000000000
-17.647415161132812 -18.842618942260742 1.434309363365173 0.000000000000000
-17.626831054687500 -17.082786560058594 0.278482258319855 0.000000000000000
-17.620124816894531 -17.066741943359375 -0.522405982017517 0.000000000000000
-17.612724304199219 -19.233039855957031 1.951740503311157 0.000000000000000
-17.610092163085938 -17.057024002075195 0.607732653617859 0.000000000000000
-17.599742889404297 -10.221102714538574 -1.059502601623535 0.000000000000000
-17.597454071044922 -22.574018478393555 1.204649448394775 0.000000000000000
-17.595567703247070 -17.042955398559570 0.983871042728424 0.000000000000000
-17.590164184570312 -17.094345092773438 1.930407881736755 0.000000000000000
-17.588134765625000 -17.110876083374023 2.787101268768311 0.000000000000000
-17.578857421875000 32.069911956787109 0.555361926555634 0.000000000000000
-17.575090408325195 -9.571113586425781 -0.387748807668686 0.000000000000000
-17.572713851928711 -22.249319076538086 -0.059380244463682 0.000000000000000
-17.567678451538086 -23.196645736694336 1.224665164947510 0.000000000000000
-17.558671951293945 -9.244330406188965 -0.422591865062714 0.000000000000000
-17.555971145629883 -17.014114379882812 2.216314792633057 0.000000000000000
-17.543073654174805 -17.029537200927734 2.453286886215210 0.000000000000000
-17.534521102905273 -28.564483642578125 2.920568466186523 0.000000000000000
-17.524890899658203 -19.002193450927734 3.830976963043213 0.000000000000000
-17.491985321044922 32.232326507568359 0.486474633216858 0.000000000000000
-17.466169357299805 32.454460144042969 -0.077190965414047 0.000000000000000
-17.459976196289062 -22.701738357543945 2.495556592941284 0.000000000000000
-17.457674026489258 -9.739182472229004 -1.348798751831055 0.000000000000000
-17.455720901489258 31.410755157470703 0.959824740886688 0.000000000000000
-17.443578720092773 -19.721927642822266 2.502763271331787 0.000000000000000
-17.441196441650391 -16.912328720092773 2.309340238571167 0.000000000000000
-17.428577423095703 -16.540264129638672 -0.096454322338104 0.000000000000000
-17.426092147827148 -25.290761947631836 0.820342004299164 0.000000000000000
-17.423782348632812 -18.734477996826172 1.421439647674561 0.000000000000000
-17.417215347290039 32.385166168212891 -0.147611886262894 0.000000000000000
-17.416803359985352 -9.247426033020020 -0.419951736927032 1.000000000000000
-17.408748626708984 -16.862003326416016 2.111865282058716 0.000000000000000
-17.393192291259766 -10.126746177673340 -0.931537508964539 0.000000000000000
-17.391727447509766 31.896001815795898 0.691217660903931 0.000000000000000
-17.377916336059570 -16.631088256835938 -1.205886125564575 0.000000000000000
-17.360738754272461 -22.989194869995117 0.050279419869184 0.000000000000000
-17.359375000000000 -7.977812767028809 -1.399616599082947 0.000000000000000
-17.349515914916992 -8.046756744384766 -1.401077866554260 0.000000000000000
-17.343530654907227 -8.907240867614746 -1.353112101554871 0.000000000000000
-17.324924468994141 -16.405147552490234 0.133258685469627 0.000000000000000
-17.320989608764648 -10.763758659362793 -0.669379830360413 1.000000000000000
-17.305057525634766 -16.395507812500000 0.911619067192078 0.000000000000000
-17.295492172241211 31.984663009643555 0.691826343536377 0.000000000000000
-17.282287597656250 31.474071502685547 0.614217102527618 0.000000000000000
-17.281150817871094 31.340929031372070 -0.418531596660614 0.000000000000000
-17.235504150390625 -16.633094787597656 2.551328182220459 0.000000000000000
-17.234163284301758 -7.900974273681641 -0.585872471332550 0.000000000000000
-17.177490234375000 -16.479532241821289 -1.376711368560791 1.000000000000000
-17.174015045166016 -19.711935043334961 0.648076295852661 0.000000000000000
-17.169754028320312 -18.636688232421875 0.628152310848236 0.000000000000000
-17.165838241577148 -16.177404403686523 0.630021810531616 0.000000000000000
-17.153932571411133 -8.579573631286621 -0.076993249356747 1.000000000000000
-17.135889053344727 -16.144662857055664 0.176694080233574 0.000000000000000
-17.132045745849609 -16.136514663696289 0.221818298101425 0.000000000000000
-17.130012512207031 30.046710968017578 -0.603713691234589 0.000000000000000
-17.128343582153320 -18.811929702758789 1.070762038230896 0.000000000000000
-17.112960815429688 -16.237327575683594 3.496140241622925 0.000000000000000
-17.090545654296875 -16.219459533691406 -0.818678259849548 0.000000000000000
-17.089826583862305 31.230747222900391 0.472255498170853 0.000000000000000
-17.078176498413086 -16.321397781372070 2.141558885574341 0.000000000000000
-17.056406021118164 -15.992407798767090 0.939083993434906 0.000000000000000
-17.041992187500000 -21.848888397216797 1.539486169815063 0.000000000000000
-17.036394119262695 29.948101043701172 -0.799936890602112 0.000000000000000
-17.035938262939453 -7.882175445556641 -0.580065667629242 0.000000000000000
-17.027128219604492 -15.970534324645996 0.578689157962799 0.000000000000000
-17.014221191406250 31.406845092773438 -0.211965501308441 0.000000000000000
-17.002656936645508 -16.006820678710938 0.085589364171028 0.000000000000000
-16.998123168945312 31.343164443969727 -0.143131986260414 0.000000000000000
-16.994853973388672 -19.595886230468750 0.244475111365318 0.000000000000000
-16.991931915283203 -16.283866882324219 2.506843090057373 0.000000000000000
-16.958042144775391 -8.436872482299805 2.017506599426270 1.000000000000000
-16.943611145019531 30.784658432006836 0.196257784962654 0.000000000000000
-16.943035125732422 29.303674697875977 -1.241195678710938 0.000000000000000
-16.937658309936523 31.493486404418945 0.955125510692596 0.000000000000000
-16.934848785400391 29.548379898071289 -0.856132149696350 0.000000000000000
-16.908866882324219 30.977033615112305 0.197106689214706 0.000000000000000
-16.892623901367188 -22.514408111572266 1.726481556892395 0.000000000000000
-16.889642715454102 -9.463299751281738 -1.418321013450623 0.000000000000000
-16.885831832885742 -8.474602699279785 2.012422561645508 1.000000000000000
-16.873060226440430 29.869237899780273 -0.664690077304840 0.000000000000000
-16.872785568237305 29.184488296508789 -1.300934791564941 0.000000000000000
-16.860811233520508 -16.027742385864258 2.334276676177979 0.000000000000000
-16.834333419799805 29.502943038940430 -0.527680456638336 0.000000000000000
-16.826511383056641 29.340353012084961 -0.785267651081085 0.000000000000000
-16.812814712524414 -19.672760009765625 0.293593019247055 0.000000000000000
-16.805040359497070 29.507812500000000 -0.657948613166809 1.000000000000000
-16.795948028564453 -16.226459503173828 2.652576446533203 0.000000000000000
-16.784513473510742 -21.251358032226562 1.608863472938538 0.000000000000000
-16.777828216552734 -15.966705322265625 2.467018365859985 0.000000000000000
-16.777433395385742 -8.766559600830078 -1.204226255416870 0.000000000000000
-16.772693634033203 -8.498969078063965 -0.797945261001587 0.000000000000000
-16.759830474853516 -15.920062065124512 2.197299003601074 0.000000000000000
-16.752645492553711 -22.327846527099609 2.142954111099243 0.000000000000000
-16.745019912719727 30.244905471801758 0.591366887092590 0.000000000000000
-16.728723526000977 -8.604412078857422 -0.870692610740662 0.000000000000000
-16.718765258789062 29.119495391845703 -0.650587379932404 0.000000000000000
-16.715658187866211 30.121124267578125 0.721592068672180 0.000000000000000
-16.697280883789062 -21.253557205200195 1.918426275253296 0.000000000000000
-16.688575744628906 -15.527544975280762 3.378273010253906 0.000000000000000
-16.685264587402344 -15.755870819091797 2.302726984024048 0.000000000000000
-16.677431106567383 -20.374383926391602 0.349270641803741 0.000000000000000
-16.674764633178711 -25.609315872192383 0.522748112678528 0.000000000000000
-16.673271179199219 -21.110509872436523 2.013236284255981 0.000000000000000
-16.666000366210938 29.027593612670898 -0.134364858269691 0.000000000000000
-16.664419174194336 -21.421045303344727 2.723256349563599 0.000000000000000
-16.663869857788086 -15.528987884521484 1.090117812156677 1.000000000000000
-16.660730361938477 30.479394912719727 0.127313807606697 0.000000000000000
-16.645591735839844 29.435371398925781 -0.070824012160301 0.000000000000000
-16.636665344238281 -7.627052307128906 -1.411448836326599 0.000000000000000
-16.632946014404297 -20.014566421508789 -0.104466766119003 0.000000000000000
-16.620178222656250 -15.419579505920410 0.866985797882080 0.000000000000000
-16.606519699096680 28.637367248535156 -0.514260172843933 0.000000000000000
-16.582098007202148 -15.302590370178223 0.949658036231995 0.000000000000000
-16.580659866333008 -21.872739791870117 1.948162794113159 0.000000000000000
-16.578918457031250 28.655416488647461 -0.641443789005280 0.000000000000000
-16.567277908325195 -15.347911834716797 0.429690241813660 0.000000000000000
-16.567153930664062 28.444648742675781 -0.827483892440796 0.000000000000000
-16.566816329956055 29.160480499267578 0.638105571269989 0.000000000000000
-16.564378738403320 28.564693450927734 -0.005763077177107 0.000000000000000
-16.563289642333984 -15.623745918273926 2.164367914199829 0.000000000000000
-16.561717987060547 -15.651239395141602 2.427193403244019 0.000000000000000
-16.550174713134766 -9.056451797485352 -0.474255234003067 0.000000000000000
-16.547868728637695 28.393310546875000 -1.268234014511108 0.000000000000000
-16.546054840087891 -20.815408706665039 2.668144226074219 0.000000000000000
-16.531269073486328 -15.859568595886230 2.602016925811768 0.000000000000000
-16.523803710937500 28.560155868530273 -0.132454097270966 1.000000000000000
-16.523773193359375 -18.147935867309570 1.410870552062988 0.000000000000000
-16.514459609985352 -15.240170478820801 0.600224256515503 0.000000000000000
-16.497451782226562 -9.102577209472656 -0.473652094602585 0.000000000000000
-16.486114501953125 -20.254364013671875 1.450951337814331 0.000000000000000
-16.480209350585938 28.419548034667969 0.498878329992294 1.000000000000000
-16.470666885375977 -16.703428268432617 1.529308438301086 0.000000000000000
-16.469074249267578 30.113792419433594 0.257596313953400 0.000000000000000
-16.462970733642578 28.876693725585938 -0.069617636501789 0.000000000000000
-16.458545684814453 -15.433457374572754 2.263988733291626 0.000000000000000
-16.438726425170898 -15.144805908203125 0.854757547378540 0.000000000000000
-16.419403076171875 29.376668930053711 0.640312194824219 0.000000000000000
-16.415521621704102 -15.282029151916504 -1.470000982284546 1.000000000000000
-16.410175323486328 28.814474105834961 -0.133112415671349 0.000000000000000
-16.402727127075195 -7.826511383056641 -0.456865161657333 0.000000000000000
-16.394622802734375 -21.898403167724609 2.100088834762573 0.000000000000000
-16.383663177490234 28.433469772338867 0.057274695485830 1.000000000000000
-16.382217407226562 -15.607121467590332 2.569965600967407 0.000000000000000
-16.371755599975586 -15.036678314208984 0.551033437252045 0.000000000000000
-16.357429504394531 -8.341361999511719 -1.416062355041504 0.000000000000000
-16.352529525756836 28.624895095825195 0.943870961666107 1.000000000000000
-16.338727951049805 -15.304495811462402 2.128030061721802 0.000000000000000
-16.333827972412109 -14.996595382690430 0.890604794025421 0.000000000000000
-16.330627441406250 -22.677995681762695 0.746435403823853 0.000000000000000
-16.324226379394531 29.374681472778320 0.381262540817261 1.000000000000000
-16.305728912353516 -9.421328544616699 -0.871617317199707 0.000000000000000
-16.304092407226562 -22.049009323120117 2.751610994338989 0.000000000000000
-16.267482757568359 26.816427230834961 0.837750673294067 0.000000000000000
-16.267101287841797 -8.284213066101074 -1.443115353584290 0.000000000000000
-16.256612777709961 -15.082278251647949 -0.855772674083710 0.000000000000000
-16.255996704101562 -15.137234687805176 2.228844881057739 0.000000000000000
-16.254053115844727 27.828851699829102 -0.067498110234737 1.000000000000000
-16.253498077392578 28.590391159057617 0.183680295944214 0.000000000000000
-16.247985839843750 -20.294589996337891 2.608639240264893 0.000000000000000
-16.241043090820312 28.030780792236328 -0.067849963903427 0.000000000000000
-16.240730285644531 27.690513610839844 -0.375406175851822 0.000000000000000
-16.237846374511719 -15.194046974182129 2.722598552703857 0.000000000000000
-16.237380981445312 -15.361377716064453 2.538817167282104 0.000000000000000
-16.227705001831055 -11.005170822143555 -1.058469533920288 0.000000000000000
-16.223062515258789 28.749046325683594 0.311126172542572 1.000000000000000
-16.213455200195312 -15.125638961791992 2.518503189086914 0.000000000000000
-16.197080612182617 -25.066608428955078 0.969178676605225 0.000000000000000
-16.196393966674805 -22.244228363037109 0.470685362815857 0.000000000000000
-16.191743850708008 -14.546397209167480 3.225808143615723 0.000000000000000
-16.188213348388672 -14.935960769653320 -1.486128926277161 1.000000000000000
-16.180328369140625 -15.036742210388184 -1.447763919830322 0.000000000000000
-16.177307128906250 -8.464122772216797 -1.408065438270569 0.000000000000000
-16.139387130737305 28.504219055175781 0.497420668601990 0.000000000000000
-16.135469436645508 -15.008706092834473 2.094720602035522 0.000000000000000
-16.134624481201172 27.624376296997070 -0.558407187461853 0.000000000000000
-16.133708953857422 -8.070006370544434 -0.141684383153915 1.000000000000000
-16.130725860595703 -28.017107009887695 0.987737774848938 0.000000000000000
-16.126438140869141 22.170080184936523 -0.531178653240204 0.000000000000000
-16.123289108276367 -14.936600685119629 2.496383190155029 0.000000000000000
-16.117904663085938 -21.743972778320312 0.722939133644104 0.000000000000000
-16.105470657348633 27.213335037231445 -0.794915258884430 0.000000000000000
-16.102987289428711 27.389900207519531 -1.103979468345642 0.000000000000000
-16.099786758422852 -14.810740470886230 0.416221976280212 0.000000000000000
-16.096803665161133 -26.994071960449219 1.564632177352905 0.000000000000000
-16.093971252441406 28.017686843872070 0.242496564984322 0.000000000000000
-16.073537826538086 -18.851657867431641 0.709305524826050 0.000000000000000
-16.068437576293945 27.570688247680664 -0.740888655185699 0.000000000000000
-16.061647415161133 27.308647155761719 -0.370494961738586 0.000000000000000
-16.059629440307617 -21.536235809326172 2.010549545288086 0.000000000000000
-16.044820785522461 27.290962219238281 -0.613393187522888 0.000000000000000
-16.036830902099609 28.621751785278320 0.876305937767029 0.000000000000000
-16.034267425537109 -14.690638542175293 -1.132076859474182 0.000000000000000
-16.030271530151367 27.069023132324219 -0.730397343635559 0.000000000000000
-16.018083572387695 21.898761749267578 -1.047041177749634 1.000000000000000
-16.017389297485352 -22.109289169311523 0.362163364887238 0.000000000000000
-16.017356872558594 -14.675146102905273 -0.128912046551704 0.000000000000000
-16.015722274780273 -15.046077728271484 2.495931863784790 0.000000000000000
-16.005123138427734 27.926170349121094 0.179770767688751 0.000000000000000
-16.003677368164062 21.891891479492188 -1.098642826080322 0.000000000000000
-15.995613098144531 -18.206150054931641 2.303662538528442 0.000000000000000
-15.994291305541992 27.441263198852539 0.787346363067627 1.000000000000000
-15.993074417114258 -14.652897834777832 -1.463509917259216 1.000000000000000
-15.991959571838379 -14.798872947692871 2.320852756500244 0.000000000000000
-15.987619400024414 27.816802978515625 -0.067196518182755 0.000000000000000
-15.986453056335449 27.152622222900391 0.417978733778000 1.000000000000000
-15.983119964599609 21.101301193237305 0.503651440143585 0.000000000000000
-15.966935157775879 -16.587465286254883 0.969000995159149 0.000000000000000
-15.964154243469238 -22.169080734252930 1.570414185523987 0.000000000000000
-15.961469650268555 -19.794702529907227 2.551530361175537 0.000000000000000
-15.960162162780762 -23.869838714599609 -0.335788816213608 0.000000000000000
-15.949472427368164 -14.588392257690430 -0.211268052458763 0.000000000000000
-15.949300765991211 -17.513309478759766 1.316040992736816 0.000000000000000
-15.942367553710938 27.445680618286133 0.055396724492311 0.000000000000000
-15.939406394958496 27.958343505859375 0.921433269977570 0.000000000000000
-15.932543754577637 -18.897735595703125 1.754451036453247 0.000000000000000
-15.901465415954590 21.218852996826172 -0.462837815284729 0.000000000000000
-15.894843101501465 -22.891838073730469 1.548361778259277 0.000000000000000
-15.888348579406738 -18.211879730224609 1.808748364448547 0.000000000000000
-15.885750770568848 -14.613841056823730 2.451692104339600 0.000000000000000
-15.884010314941406 -9.631452560424805 0.032421220093966 1.000000000000000
-15.877710342407227 -21.887516021728516 1.138042211532593 0.000000000000000
-15.870249748229980 26.685026168823242 1.008257389068604 0.000000000000000
-15.868742942810059 -23.898860931396484 -0.170237019658089 0.000000000000000
-15.861512184143066 21.614955902099609 -1.344079375267029 1.000000000000000
-15.844443321228027 -22.165596008300781 0.727745175361633 0.000000000000000
-15.835055351257324 -24.213266372680664 -0.171684935688972 0.000000000000000
-15.818542480468750 -23.837694168090820 1.644561767578125 0.000000000000000
-15.816567420959473 -14.389956474304199 -1.113153457641602 0.000000000000000
-15.815839767456055 -16.770460128784180 2.822247266769409 0.000000000000000
-15.814705848693848 21.475629806518555 -1.491104125976562 1.000000000000000
-15.814220428466797 28.692367553710938 0.371687829494476 0.000000000000000
-15.811100959777832 -8.183794975280762 -1.201236128807068 0.000000000000000
-15.802055358886719 -14.376753807067871 -1.441429376602173 0.000000000000000
-15.801454544067383 22.097290039062500 -1.100585818290710 0.000000000000000
-15.796283721923828 -14.371502876281738 -0.126728311181068 0.000000000000000
-15.794714927673340 -14.446841239929199 -0.538085639476776 0.000000000000000
-15.780297279357910 -22.075859069824219 1.142078995704651 0.000000000000000
-15.779950141906738 -16.279096603393555 0.605564296245575 0.000000000000000
-15.761880874633789 26.809705734252930 0.113987207412720 0.000000000000000
-15.741278648376465 -14.731459617614746 3.685199975967407 0.000000000000000
-15.733589172363281 26.915100097656250 0.473430305719376 1.000000000000000
-15.726850509643555 -18.779781341552734 2.134435415267944 0.000000000000000
-15.719520568847656 -14.359937667846680 2.418286800384521 0.000000000000000
-15.713954925537109 -18.001821517944336 0.638245522975922 0.000000000000000
-15.700880050659180 27.539958953857422 0.420525461435318 1.000000000000000
-15.698561668395996 26.315782546997070 -0.299504905939102 0.000000000000000
-15.696095466613770 27.338287353515625 0.115541242063046 0.000000000000000
-15.692841529846191 22.272409439086914 -1.103824377059937 0.000000000000000
-15.690570831298828 21.413345336914062 -1.330860853195190 0.000000000000000
-15.679230690002441 26.102859497070312 -0.356088638305664 0.000000000000000
-15.678573608398438 26.282276153564453 0.170924097299576 0.000000000000000
-15.677113533020020 21.288785934448242 -1.071115970611572 0.000000000000000
-15.676083564758301 -27.385278701782227 2.860588312149048 1.000000000000000
-15.667415618896484 22.275106430053711 -1.208077311515808 0.000000000000000
-15.665566444396973 26.225091934204102 -0.122627213597298 0.000000000000000
-15.665335655212402 -20.397764205932617 3.811625719070435 0.000000000000000
-15.655771255493164 21.365854263305664 -0.106329366564751 1.000000000000000
-15.649029731750488 26.019678115844727 -0.238475874066353 0.000000000000000
-15.645967483520508 26.020753860473633 -0.763251364231110 0.000000000000000
-15.645768165588379 -19.498409271240234 -0.148352116346359 0.000000000000000
-15.645258903503418 -14.153445243835449 -1.464163661003113 1.000000000000000
-15.641894340515137 26.185464859008789 -1.059809207916260 0.000000000000000
-15.641892433166504 -14.131549835205078 -1.422310829162598 0.000000000000000
-15.641535758972168 26.247247695922852 0.581341147422791 0.000000000000000
-15.640129089355469 -7.726779460906982 -0.505556762218475 0.000000000000000
-15.631660461425781 -14.184865951538086 -0.571173131465912 0.000000000000000
-15.622304916381836 -14.260620117187500 2.253066062927246 0.000000000000000
-15.618120193481445 -14.123947143554688 -1.136738896369934 0.000000000000000
-15.611205101013184 -14.179227828979492 -0.530144512653351 0.000000000000000
-15.609818458557129 26.167018890380859 0.638241231441498 0.000000000000000
-15.609459877014160 22.075424194335938 -1.459519267082214 0.000000000000000
-15.605743408203125 26.065982818603516 0.461344003677368 0.000000000000000
-15.596851348876953 -17.742282867431641 0.994231045246124 0.000000000000000
-15.595202445983887 22.754062652587891 -1.011512994766235 0.000000000000000
-15.588582992553711 27.053627014160156 0.534104764461517 1.000000000000000
-15.587567329406738 -17.731719970703125 1.357153654098511 0.000000000000000
-15.584423065185547 -22.291631698608398 1.563527345657349 0.000000000000000
-15.580307006835938 -17.974983215332031 0.635361909866333 0.000000000000000
-15.574563980102539 26.072748184204102 -0.588442146778107 0.000000000000000
-15.561015129089355 27.133710861206055 0.234751567244530 0.000000000000000
-15.560070991516113 -14.041860580444336 2.789113283157349 0.000000000000000
-15.548670768737793 -16.130392074584961 1.115349888801575 0.000000000000000
-15.547929763793945 -8.782990455627441 2.028254985809326 0.000000000000000
-15.532915115356445 -8.594447135925293 -0.650938808917999 0.000000000000000
-15.522764205932617 -14.086048126220703 2.380818367004395 0.000000000000000
-15.522700309753418 -16.125965118408203 1.286679029464722 0.000000000000000
-15.519870758056641 -23.211341857910156 1.605077505111694 0.000000000000000
-15.519512176513672 -16.250461578369141 2.135978937149048 0.000000000000000
-15.516735076904297 -8.078879356384277 -1.214089989662170 0.000000000000000
-15.511577606201172 22.126523971557617 -1.354694128036499 0.000000000000000
-15.511205673217773 22.170415878295898 -1.096213936805725 0.000000000000000
-15.508760452270508 25.871225357055664 0.515975177288055 1.000000000000000
-15.499691009521484 -22.336048126220703 1.562838673591614 0.000000000000000
-15.486647605895996 -22.810169219970703 1.956942081451416 0.000000000000000
-15.486324310302734 -16.200984954833984 0.598622202873230 0.000000000000000
-15.473869323730469 -14.580813407897949 2.603019952774048 0.000000000000000
-15.472358703613281 25.813570022583008 -0.525317430496216 0.000000000000000
-15.468074798583984 26.711769104003906 0.231659591197968 0.000000000000000
-15.454360008239746 -19.122732162475586 0.231733009219170 0.000000000000000
-15.452373504638672 21.400043487548828 -0.105960063636303 0.000000000000000
-15.451146125793457 -13.880083084106445 -1.441454887390137 1.000000000000000
-15.444739341735840 -22.136224746704102 0.669090747833252 0.000000000000000
-15.441308975219727 -16.168573379516602 1.673219084739685 0.000000000000000
-15.441081047058105 25.758325576782227 0.052415702491999 0.000000000000000
-15.436126708984375 26.680183410644531 0.112975612282753 0.000000000000000
-15.430054664611816 22.260570526123047 -0.889050841331482 0.000000000000000
-15.429732322692871 21.937181472778320 0.458781421184540 0.000000000000000
-15.423206329345703 -23.186573028564453 1.708114743232727 0.000000000000000
-15.418545722961426 -13.976274490356445 2.216630697250366 0.000000000000000
-15.404778480529785 -17.647630691528320 1.346593976020813 0.000000000000000
-15.403577804565430 25.643953323364258 0.569166421890259 0.000000000000000
-15.397461891174316 -19.199939727783203 1.414772987365723 0.000000000000000
