# This PCD file was generated using the MATLAB® pcwrite function
# from Computer Vision Toolbox®.
# .PCD v.7 - Point Cloud Data file format
VERSION .7
FIELDS x y z intensity
SIZE 8 8 8 8
TYPE F F F F
COUNT 1 1 1 1
WIDTH 627
HEIGHT 1
VIEWPOINT 0 0 0 1 0 0 0
POINTS 627
DATA ascii
-13.939677238464355 -21.246175765991211 1.216128587722778 0.000000000000000
-13.932149887084961 -24.493160247802734 1.457039475440979 0.000000000000000
-13.922565460205078 -13.437355995178223 2.574890851974487 0.000000000000000
-13.919354438781738 -33.552944183349609 3.644986152648926 0.000000000000000
-13.910488128662109 -21.453876495361328 2.012319087982178 0.000000000000000
-13.899985313415527 -22.657859802246094 2.143384456634521 0.000000000000000
-13.893820762634277 -25.389154434204102 1.831027865409851 0.000000000000000
-13.888911247253418 -12.176819801330566 1.346700191497803 0.000000000000000
-13.883095741271973 -15.184762954711914 1.738553285598755 0.000000000000000
-13.880814552307129 -12.553724288940430 2.773690462112427 0.000000000000000
-13.879255294799805 -17.625991821289062 0.254522919654846 0.000000000000000
-13.877714157104492 -11.142819404602051 2.021483659744263 0.000000000000000
-13.859357833862305 -24.654718399047852 -1.363485217094421 1.000000000000000
-13.856450080871582 -18.974790573120117 0.763009130954742 0.000000000000000
-13.855737686157227 -10.736777305603027 0.333510249853134 0.000000000000000
-13.854311943054199 -14.554568290710449 0.845710337162018 0.000000000000000
-13.842574119567871 -25.422855377197266 2.110509157180786 0.000000000000000
-13.825937271118164 -12.493575096130371 1.358625531196594 0.000000000000000
-13.822561264038086 -18.084396362304688 0.301944285631180 0.000000000000000
-13.821999549865723 -30.331024169921875 0.058175284415483 0.000000000000000
-13.821220397949219 -13.369393348693848 1.827864885330200 0.000000000000000
-13.815551757812500 -13.351779937744141 1.400800943374634 0.000000000000000
-13.811446189880371 -15.174324989318848 0.232787042856216 0.000000000000000
-13.807812690734863 -21.739181518554688 1.331660628318787 0.000000000000000
-13.799289703369141 -24.135919570922852 0.315419644117355 0.000000000000000
-13.799054145812988 -26.886983871459961 1.271929502487183 0.000000000000000
-13.775537490844727 -13.195506095886230 0.399581402540207 0.000000000000000
-13.772309303283691 -12.798916816711426 0.502180457115173 0.000000000000000
-13.760489463806152 -18.959861755371094 1.798501491546631 0.000000000000000
-13.758204460144043 -17.665554046630859 2.128408432006836 0.000000000000000
-13.744250297546387 -18.052362442016602 0.562432706356049 0.000000000000000
-13.741778373718262 -17.451402664184570 0.934856355190277 0.000000000000000
-13.741189002990723 -21.660173416137695 2.573894500732422 0.000000000000000
-13.740965843200684 -12.704687118530273 0.463902920484543 0.000000000000000
-13.736524581909180 -21.185575485229492 2.689444065093994 0.000000000000000
-13.719961166381836 -24.575160980224609 -0.599395692348480 1.000000000000000
-13.714731216430664 -12.815178871154785 3.904219865798950 0.000000000000000
-13.708633422851562 -11.733961105346680 0.343326061964035 0.000000000000000
-13.697557449340820 -14.221941947937012 1.097033619880676 0.000000000000000
-13.685666084289551 -13.166329383850098 0.215452805161476 0.000000000000000
-13.681026458740234 -14.718412399291992 1.155141592025757 0.000000000000000
-13.674210548400879 -16.642518997192383 1.952682733535767 0.000000000000000
-13.673089981079102 -18.451845169067383 1.099104881286621 0.000000000000000
-13.670380592346191 -23.767765045166016 1.893260359764099 0.000000000000000
-13.665226936340332 -12.655030250549316 0.927204191684723 0.000000000000000
-13.661257743835449 -21.701271057128906 2.573095798492432 0.000000000000000
-13.655752182006836 -14.794450759887695 1.825200557708740 0.000000000000000
-13.644649505615234 -18.822357177734375 0.754959642887115 0.000000000000000
-13.644272804260254 -13.334428787231445 1.538337230682373 0.000000000000000
-13.632750511169434 -18.564857482910156 1.412776112556458 0.000000000000000
-13.625345230102539 -21.618274688720703 1.321332812309265 0.000000000000000
-13.621070861816406 -16.696323394775391 1.953405141830444 0.000000000000000
-13.616875648498535 -18.956169128417969 -0.004073598887771 0.000000000000000
-13.616299629211426 -12.915062904357910 1.042670130729675 0.000000000000000
-13.610386848449707 -10.728793144226074 2.121789455413818 0.000000000000000
-13.610271453857422 -18.891254425048828 1.069511890411377 0.000000000000000
-13.588375091552734 -24.371429443359375 -1.345187187194824 1.000000000000000
-13.578379631042480 -21.826477050781250 3.420700311660767 0.000000000000000
-13.574253082275391 -14.743290901184082 1.693422317504883 0.000000000000000
-13.553291320800781 -19.290826797485352 -0.004114788025618 0.000000000000000
-13.551736831665039 -23.799249649047852 2.208325624465942 0.000000000000000
-13.543073654174805 -19.420043945312500 -0.004132241476327 0.000000000000000
-13.537468910217285 -23.958612442016602 2.218935012817383 0.000000000000000
-13.536974906921387 -12.438297271728516 0.102675095200539 0.000000000000000
-13.529022216796875 -17.058374404907227 1.251556396484375 0.000000000000000
-13.527760505676270 -18.654953002929688 0.969842016696930 0.000000000000000
-13.522947311401367 -13.439188957214355 0.509229362010956 0.000000000000000
-13.521826744079590 -12.514341354370117 1.272184967994690 0.000000000000000
-13.521071434020996 -19.080955505371094 0.310221076011658 0.000000000000000
-13.515817642211914 -25.357599258422852 2.316989898681641 0.000000000000000
-13.510396957397461 -17.522092819213867 1.229281306266785 0.000000000000000
-13.504751205444336 -13.990436553955078 0.519375503063202 0.000000000000000
-13.493257522583008 -16.422285079956055 0.241136521100998 0.000000000000000
-13.491662025451660 -12.518804550170898 1.749511718750000 0.000000000000000
-13.489565849304199 -12.372181892395020 2.712704658508301 0.000000000000000
-13.485812187194824 -14.199167251586914 1.389967083930969 0.000000000000000
-13.480922698974609 -21.791728973388672 2.435765504837036 0.000000000000000
-13.480183601379395 -15.091606140136719 1.514405131340027 0.000000000000000
-13.478392601013184 -9.446088790893555 2.190239906311035 0.000000000000000
-13.470652580261230 -13.091404914855957 1.224591732025146 0.000000000000000
-13.464008331298828 -9.502742767333984 -0.635968029499054 0.000000000000000
-13.463576316833496 -18.511995315551758 1.315833091735840 0.000000000000000
-13.452967643737793 -17.359722137451172 0.882096827030182 0.000000000000000
-13.440692901611328 -16.490491867065430 0.282207280397415 0.000000000000000
-13.427491188049316 -14.910651206970215 1.424234747886658 0.000000000000000
-13.424874305725098 -24.245059967041016 -0.590197801589966 1.000000000000000
-13.416376113891602 -14.706206321716309 2.950198173522949 0.000000000000000
-13.415597915649414 -15.989219665527344 -0.083785362541676 0.000000000000000
-13.414068222045898 -9.566753387451172 2.441785812377930 0.000000000000000
-13.406385421752930 -13.416689872741699 0.215180531144142 0.000000000000000
-13.404483795166016 -25.191074371337891 1.860307216644287 0.000000000000000
-13.393305778503418 -14.368594169616699 0.222849354147911 0.000000000000000
-13.367845535278320 -12.357975006103516 1.467930555343628 0.000000000000000
-13.367384910583496 -14.948504447937012 1.423385024070740 0.000000000000000
-13.363397598266602 -20.485349655151367 2.778072834014893 0.000000000000000
-13.362307548522949 -12.352855682373047 1.186339378356934 0.000000000000000
-13.362093925476074 -10.366194725036621 0.646723747253418 0.000000000000000
-13.361492156982422 -18.683107376098633 0.701775074005127 0.000000000000000
-13.359949111938477 -23.844198226928711 3.346254110336304 0.000000000000000
-13.358637809753418 -12.360709190368652 0.381235808134079 0.000000000000000
-13.355127334594727 -21.532897949218750 1.651871681213379 0.000000000000000
-13.343655586242676 -24.150068283081055 -0.693590700626373 1.000000000000000
-13.329126358032227 -20.471042633056641 1.169089674949646 0.000000000000000
-13.325822830200195 -13.869849205017090 0.476789116859436 0.000000000000000
-13.320492744445801 -23.363739013671875 1.701466798782349 0.000000000000000
-13.304760932922363 -18.097675323486328 0.297965049743652 0.000000000000000
-13.292703628540039 -17.265914916992188 0.289051562547684 0.000000000000000
-13.287125587463379 -10.532756805419922 -0.393655121326447 0.000000000000000
-13.279342651367188 -10.934189796447754 1.021967530250549 0.000000000000000
-13.270667076110840 -22.473478317260742 2.154916286468506 0.000000000000000
-13.269254684448242 -11.927578926086426 1.438674926757812 0.000000000000000
-13.267163276672363 -9.229164123535156 2.150666952133179 0.000000000000000
-13.265905380249023 -13.928624153137207 0.181292340159416 0.000000000000000
-13.262533187866211 -17.210567474365234 -0.087221555411816 0.000000000000000
-13.261888504028320 -21.370906829833984 1.688191890716553 0.000000000000000
-13.261638641357422 -20.298360824584961 1.020470261573792 0.000000000000000
-13.257901191711426 -13.831012725830078 0.806351482868195 0.000000000000000
-13.257197380065918 -24.156682968139648 -0.957439661026001 1.000000000000000
-13.256372451782227 -9.440327644348145 2.411879539489746 0.000000000000000
-13.254156112670898 -14.754377365112305 1.101915240287781 0.000000000000000
-13.243656158447266 -17.903659820556641 0.680398106575012 0.000000000000000
-13.243089675903320 -14.147916793823242 3.312501430511475 0.000000000000000
-13.239014625549316 -16.998914718627930 0.285815119743347 0.000000000000000
-13.237776756286621 -10.569093704223633 -0.393283724784851 0.000000000000000
-13.236183166503906 -11.749155044555664 0.949226140975952 0.000000000000000
-13.235434532165527 -13.378505706787109 1.788877606391907 0.000000000000000
-13.233741760253906 -11.576291084289551 -0.441988170146942 0.000000000000000
-13.231350898742676 -20.946931838989258 2.639027357101440 0.000000000000000
-13.227503776550293 -20.941650390625000 1.233090043067932 0.000000000000000
-13.218419075012207 -23.872205734252930 -0.161929309368134 1.000000000000000
-13.217218399047852 -18.623205184936523 1.268778085708618 0.000000000000000
-13.214877128601074 -20.658761978149414 3.263463020324707 0.000000000000000
-13.213146209716797 -12.859100341796875 1.059874534606934 0.000000000000000
-13.212443351745605 -14.314176559448242 1.119789481163025 0.000000000000000
-13.211267471313477 -23.890762329101562 -1.316103100776672 1.000000000000000
-13.207939147949219 -18.294414520263672 0.949658036231995 0.000000000000000
-13.201895713806152 -9.194709777832031 2.384318351745605 0.000000000000000
-13.200554847717285 -14.511289596557617 1.468134045600891 0.000000000000000
-13.193448066711426 -17.461336135864258 0.542508661746979 0.000000000000000
-13.187668800354004 -24.029991149902344 -0.531101167201996 1.000000000000000
-13.184891700744629 -14.143025398254395 2.367265701293945 0.000000000000000
-13.174833297729492 -23.893756866455078 -0.895612120628357 1.000000000000000
-13.164520263671875 -13.218858718872070 1.773358464241028 0.000000000000000
-13.161415100097656 -14.159400939941406 3.304414033889771 0.000000000000000
-13.160394668579102 -12.108390808105469 0.168550238013268 0.000000000000000
-13.152869224548340 -10.866313934326172 0.324607491493225 0.000000000000000
-13.145678520202637 -13.100331306457520 0.888194620609283 0.000000000000000
-13.140621185302734 -13.613210678100586 1.087651252746582 0.000000000000000
-13.138031005859375 -10.489456176757812 2.237200260162354 0.000000000000000
-13.128834724426270 -16.138906478881836 0.555687963962555 0.000000000000000
-13.117398262023926 -12.477570533752441 0.379225373268127 0.000000000000000
-13.117062568664551 -13.304294586181641 1.038010478019714 0.000000000000000
-13.115931510925293 -10.248768806457520 2.215039491653442 0.000000000000000
-13.110712051391602 -14.046733856201172 2.556951045989990 0.000000000000000
-13.108725547790527 -18.465560913085938 0.691880583763123 0.000000000000000
-13.104767799377441 -21.518001556396484 2.394885540008545 0.000000000000000
-13.097004890441895 -9.043115615844727 2.117953300476074 0.000000000000000
-13.092000007629395 -18.225484848022461 1.030784010887146 0.000000000000000
-13.090321540832520 -14.273571014404297 1.374673962593079 0.000000000000000
-13.085659980773926 -12.646389961242676 1.046100974082947 0.000000000000000
-13.083604812622070 -11.327778816223145 0.695082724094391 0.000000000000000
-13.074794769287109 -10.082042694091797 0.917301237583160 0.000000000000000
-13.072234153747559 -11.110403060913086 0.062879882752895 0.000000000000000
-13.070195198059082 -18.508970260620117 1.302518606185913 0.000000000000000
-13.063626289367676 -8.968988418579102 2.708635330200195 0.000000000000000
-13.051852226257324 -12.421294212341309 1.174629688262939 0.000000000000000
-13.049545288085938 -13.613650321960449 1.374914050102234 0.000000000000000
-13.047899246215820 -13.248930931091309 1.104759216308594 0.000000000000000
-13.047440528869629 -8.965917587280273 2.346202373504639 0.000000000000000
-13.029540061950684 -18.047313690185547 1.279562711715698 0.000000000000000
-13.028292655944824 -14.626748085021973 1.861931681632996 0.000000000000000
-13.026830673217773 -18.230619430541992 0.254205256700516 0.000000000000000
-13.020819664001465 -9.209709167480469 2.726158142089844 0.000000000000000
-13.018435478210449 -16.117801666259766 0.235055923461914 0.000000000000000
-13.017534255981445 -17.490470886230469 1.043461322784424 0.000000000000000
-13.013271331787109 -23.006502151489258 0.655213296413422 0.000000000000000
-13.011925697326660 -21.911100387573242 1.023521304130554 0.000000000000000
-12.997558593750000 -13.523457527160645 0.753354072570801 0.000000000000000
-12.995186805725098 -14.037458419799805 2.341989040374756 0.000000000000000
-12.977116584777832 -12.067952156066895 1.394688963890076 0.000000000000000
-12.972740173339844 -11.417716026306152 -0.467628389596939 0.000000000000000
-12.967386245727539 -19.361682891845703 2.215089321136475 0.000000000000000
-12.967351913452148 -23.163414001464844 1.628280162811279 0.000000000000000
-12.965277671813965 -17.547815322875977 -0.297038912773132 1.000000000000000
-12.961928367614746 -11.198708534240723 0.951694428920746 0.000000000000000
-12.957885742187500 -14.323681831359863 0.182046309113503 0.000000000000000
-12.956604003906250 -13.057399749755859 0.208691552281380 0.000000000000000
-12.950269699096680 -16.844224929809570 0.200254723429680 0.000000000000000
-12.942952156066895 -20.782405853271484 2.133393526077271 0.000000000000000
-12.937485694885254 -16.611751556396484 0.602841019630432 0.000000000000000
-12.935517311096191 -8.865097999572754 2.086822271347046 0.000000000000000
-12.929687500000000 -19.682821273803711 2.363030910491943 0.000000000000000
-12.929180145263672 -9.809512138366699 0.589428901672363 0.000000000000000
-12.928163528442383 -17.734785079956055 1.346165776252747 0.000000000000000
-12.921797752380371 -20.801794052124023 1.974601268768311 0.000000000000000
-12.921480178833008 -9.601243972778320 2.142224788665771 0.000000000000000
-12.917684555053711 -20.137599945068359 2.548362493515015 0.000000000000000
-12.916257858276367 -21.246858596801758 3.308840274810791 0.000000000000000
-12.914829254150391 -18.058546066284180 0.337140679359436 0.000000000000000
-12.912693023681641 -9.868213653564453 0.090767823159695 0.000000000000000
-12.910276412963867 -20.338636398315430 2.035609483718872 0.000000000000000
-12.909568786621094 -13.954741477966309 1.807046532630920 0.000000000000000
-12.906967163085938 -20.234931945800781 1.796210289001465 0.000000000000000
-12.902480125427246 -10.154709815979004 2.184963703155518 0.000000000000000
-12.901677131652832 -21.738401412963867 0.820913195610046 0.000000000000000
-12.885654449462891 -19.095146179199219 2.189728498458862 0.000000000000000
-12.881213188171387 -17.273925781250000 -0.045129988342524 0.000000000000000
-12.880993843078613 -8.788796424865723 2.311017990112305 0.000000000000000
-12.869801521301270 1.344041228294373 -0.723446726799011 0.000000000000000
-12.863888740539551 -11.469763755798340 1.356400966644287 0.000000000000000
-12.854139328002930 -13.740075111389160 1.408130884170532 0.000000000000000
-12.850607872009277 -27.183214187622070 0.860874354839325 0.000000000000000
-12.844983100891113 -12.271505355834961 -0.344200700521469 0.000000000000000
-12.842342376708984 -15.863502502441406 0.270747095346451 0.000000000000000
-12.833104133605957 -16.838541030883789 0.606160879135132 0.000000000000000
-12.829727172851562 -21.817121505737305 2.040828704833984 0.000000000000000
-12.828008651733398 -9.874619483947754 0.339099675416946 0.000000000000000
-12.826247215270996 -17.319761276245117 -0.045138370245695 0.000000000000000
-12.822910308837891 -10.681370735168457 2.220843315124512 0.000000000000000
-12.822450637817383 -24.010278701782227 0.674740850925446 0.000000000000000
-12.822197914123535 -17.109258651733398 0.694329202175140 0.000000000000000
-12.807197570800781 -19.348831176757812 2.328286409378052 0.000000000000000
-12.805621147155762 -15.519005775451660 -0.389840960502625 0.000000000000000
-12.802485466003418 -17.712615966796875 1.045947074890137 0.000000000000000
-12.793164253234863 -10.462887763977051 0.981876432895660 0.000000000000000
-12.786743164062500 -16.951345443725586 0.893647372722626 0.000000000000000
-12.784488677978516 -13.657982826232910 -0.075098529458046 0.000000000000000
-12.782855987548828 -17.968627929687500 1.267625689506531 0.000000000000000
-12.780101776123047 -16.584524154663086 0.881200551986694 0.000000000000000
-12.779342651367188 -12.096660614013672 2.154357671737671 0.000000000000000
-12.764783859252930 -21.128736495971680 2.803804159164429 0.000000000000000
-12.759641647338867 -22.885055541992188 1.556673765182495 0.000000000000000
-12.759376525878906 -21.668052673339844 0.719951987266541 0.000000000000000
-12.753282546997070 -8.674937248229980 2.052525520324707 0.000000000000000
-12.751033782958984 -17.844650268554688 0.585806012153625 0.000000000000000
-12.750298500061035 -13.276393890380859 0.951805830001831 0.000000000000000
-12.746938705444336 -16.413137435913086 0.515150308609009 0.000000000000000
-12.718789100646973 -13.316897392272949 2.729123830795288 0.000000000000000
-12.717542648315430 -10.471604347229004 1.232898235321045 0.000000000000000
-12.709474563598633 -9.750912666320801 0.643392980098724 0.000000000000000
-12.701604843139648 -15.937254905700684 0.818528115749359 0.000000000000000
-12.701371192932129 -16.075803756713867 -0.042909931391478 0.000000000000000
-12.694801330566406 -20.235679626464844 1.235199451446533 0.000000000000000
-12.692711830139160 -13.334256172180176 0.491713911294937 0.000000000000000
-12.691583633422852 -10.485220909118652 1.327438712120056 0.000000000000000
-12.686490058898926 -10.002662658691406 -0.126887619495392 0.000000000000000
-12.675973892211914 -10.546988487243652 1.872964620590210 0.000000000000000
-12.674573898315430 -8.634992599487305 2.272901535034180 0.000000000000000
-12.673437118530273 -20.170330047607422 1.782776832580566 0.000000000000000
-12.669563293457031 -17.548706054687500 0.578116297721863 0.000000000000000
-12.662063598632812 -22.018226623535156 1.117845535278320 0.000000000000000
-12.661562919616699 -17.161809921264648 -0.618070065975189 0.000000000000000
-12.659454345703125 -13.479064941406250 -0.393805861473083 0.000000000000000
-12.652429580688477 -17.756399154663086 0.624248385429382 0.000000000000000
-12.636565208435059 -17.122297286987305 0.568397343158722 0.000000000000000
-12.632938385009766 -9.942570686340332 0.614777326583862 0.000000000000000
-12.628265380859375 -13.540262222290039 0.174506604671478 0.000000000000000
-12.609169006347656 -13.478220939636230 1.754432439804077 0.000000000000000
-12.605297088623047 -10.637982368469238 0.567345082759857 0.000000000000000
-12.599482536315918 -22.413497924804688 1.924276471138000 0.000000000000000
-12.593894958496094 -14.285976409912109 1.094767570495605 0.000000000000000
-12.592703819274902 -15.800612449645996 1.122551202774048 0.000000000000000
-12.592457771301270 -23.724910736083984 1.544014811515808 0.000000000000000
-12.586761474609375 -13.503318786621094 -0.074102997779846 0.000000000000000
-12.583027839660645 -8.495027542114258 2.020339488983154 0.000000000000000
-12.580828666687012 -16.800016403198242 0.560600876808167 0.000000000000000
-12.570948600769043 -8.449240684509277 2.244754076004028 0.000000000000000
-12.566197395324707 -22.068466186523438 0.483182758092880 0.000000000000000
-12.555386543273926 -22.503938674926758 1.481345176696777 0.000000000000000
-12.553110122680664 -11.965869903564453 2.123247623443604 0.000000000000000
-12.553075790405273 -22.135183334350586 0.679684519767761 0.000000000000000
-12.552843093872070 -20.323993682861328 2.396976709365845 0.000000000000000
-12.550156593322754 -12.419850349426270 1.117053270339966 0.000000000000000
-12.547117233276367 -10.439774513244629 0.561432361602783 0.000000000000000
-12.543272972106934 -11.367166519165039 1.430382728576660 0.000000000000000
-12.541422843933105 -15.720499992370605 0.266767859458923 0.000000000000000
-12.541063308715820 -10.214404106140137 0.556344687938690 0.000000000000000
-12.539340972900391 -10.669552803039551 0.883030951023102 0.000000000000000
-12.538949966430664 -16.814945220947266 0.600551486015320 0.000000000000000
-12.538591384887695 -17.164474487304688 0.567756593227386 0.000000000000000
-12.536090850830078 -20.090021133422852 1.680817961692810 0.000000000000000
-12.535841941833496 -18.783916473388672 2.564999818801880 0.000000000000000
-12.529958724975586 -9.584726333618164 -0.123903147876263 0.000000000000000
-12.527322769165039 -10.307649612426758 1.986169815063477 0.000000000000000
-12.526694297790527 -12.220873832702637 0.736548423767090 0.000000000000000
-12.526443481445312 -17.147846221923828 -0.085246540606022 0.000000000000000
-12.516055107116699 -9.565093040466309 0.329968780279160 0.000000000000000
-12.509212493896484 -17.278266906738281 1.858733057975769 0.000000000000000
-12.497293472290039 -20.032514572143555 0.993726491928101 0.000000000000000
-12.494233131408691 -12.799745559692383 0.202928587794304 0.000000000000000
-12.491435050964355 -14.754433631896973 0.553501009941101 0.000000000000000
-12.488933563232422 -11.969765663146973 1.194481611251831 0.000000000000000
-12.485659599304199 -23.960224151611328 1.085163712501526 0.000000000000000
-12.484110832214355 -13.251525878906250 1.730585694313049 0.000000000000000
-12.480070114135742 -21.714031219482422 1.246813178062439 0.000000000000000
-12.478956222534180 -13.693056106567383 0.459244072437286 0.000000000000000
-12.471391677856445 -20.847267150878906 1.911891460418701 0.000000000000000
-12.470484733581543 -17.188110351562500 0.934586346149445 0.000000000000000
-12.467368125915527 -21.174697875976562 0.420332968235016 0.000000000000000
-12.457367897033691 -21.961053848266602 0.625872433185577 0.000000000000000
-12.449425697326660 -21.483299255371094 0.710908234119415 0.000000000000000
-12.446011543273926 -17.582036972045898 0.533983945846558 0.000000000000000
-12.445229530334473 -26.565317153930664 0.839924931526184 0.000000000000000
-12.435451507568359 -9.922828674316406 1.947768568992615 0.000000000000000
-12.428415298461914 -13.233068466186523 1.288579821586609 0.000000000000000
-12.421422004699707 -19.153646469116211 1.268334150314331 0.000000000000000
-12.421231269836426 -13.534513473510742 0.455378234386444 0.000000000000000
-12.415994644165039 -12.628433227539062 0.711295902729034 0.000000000000000
-12.414814949035645 -13.225984573364258 -0.072818435728550 0.000000000000000
-12.408988952636719 -15.051171302795410 2.890971422195435 0.000000000000000
-12.407508850097656 -10.859657287597656 1.138546228408813 0.000000000000000
-12.405576705932617 -19.279973983764648 2.442022085189819 0.000000000000000
-12.403892517089844 -10.209721565246582 1.326456785202026 0.000000000000000
-12.403732299804688 -10.144391059875488 1.523157715797424 0.000000000000000
-12.401406288146973 -15.530524253845215 0.836459279060364 0.000000000000000
-12.399342536926270 -12.051102638244629 1.193930625915527 0.000000000000000
-12.393169403076172 -22.405803680419922 2.064619064331055 0.000000000000000
-12.388652801513672 -24.791421890258789 2.074134826660156 0.000000000000000
-12.387219429016113 -17.652723312377930 1.073583841323853 0.000000000000000
-12.383187294006348 -23.028881072998047 2.108341693878174 0.000000000000000
-12.380632400512695 -11.994315147399902 0.460421115159988 0.000000000000000
-12.378278732299805 -11.316400527954102 -0.131725639104843 0.000000000000000
-12.372157096862793 -17.826414108276367 0.621271967887878 0.000000000000000
-12.368299484252930 -21.633018493652344 0.665586709976196 0.000000000000000
-12.364196777343750 -15.750524520874023 0.573305726051331 0.000000000000000
-12.364071846008301 -23.518159866333008 0.556565821170807 0.000000000000000
-12.360028266906738 -22.531227111816406 2.918917417526245 0.000000000000000
-12.359155654907227 -10.292876243591309 1.969156742095947 0.000000000000000
-12.340025901794434 -10.077193260192871 1.130835056304932 0.000000000000000
-12.339763641357422 -12.553532600402832 0.199706777930260 0.000000000000000
-12.339259147644043 -11.182281494140625 1.149843692779541 0.000000000000000
-12.336563110351562 -12.905868530273438 0.476868510246277 0.000000000000000
-12.333229064941406 -10.856382369995117 0.659927189350128 0.000000000000000
-12.330855369567871 -17.291049957275391 0.526450514793396 0.000000000000000
-12.323157310485840 -15.795071601867676 -0.311215311288834 0.000000000000000
-12.315478324890137 -11.952046394348145 1.949255585670471 0.000000000000000
-12.308416366577148 -13.137423515319824 0.446258753538132 0.000000000000000
-12.302161216735840 -19.894817352294922 1.795745968818665 0.000000000000000
-12.298851013183594 -24.454608917236328 2.915682792663574 0.000000000000000
-12.294351577758789 -11.753257751464844 0.814003050327301 0.000000000000000
-12.293541908264160 -20.707973480224609 2.034935951232910 0.000000000000000
-12.293507575988770 -23.626691818237305 2.096113443374634 0.000000000000000
-12.290100097656250 -18.523332595825195 1.235050439834595 0.000000000000000
-12.278511047363281 -20.713939666748047 0.458148568868637 0.000000000000000
-12.274950981140137 -24.270788192749023 1.773133754730225 0.000000000000000
-12.274359703063965 -17.811311721801758 0.951997697353363 0.000000000000000
-12.264420509338379 -9.583399772644043 0.595212042331696 0.000000000000000
-12.263896942138672 -20.607206344604492 1.378502607345581 0.000000000000000
-12.259668350219727 -9.604519844055176 2.308085918426514 0.000000000000000
-12.258524894714355 -9.573274612426758 0.564893484115601 0.000000000000000
-12.249805450439453 -8.453098297119141 -0.374136894941330 0.000000000000000
-12.246561050415039 -20.908863067626953 0.647216856479645 0.000000000000000
-12.243357658386230 -10.503464698791504 1.144995212554932 0.000000000000000
-12.242069244384766 -12.367486000061035 1.268748641014099 0.000000000000000
-12.238127708435059 -15.225519180297852 0.259127736091614 0.000000000000000
-12.236998558044434 -20.480598449707031 0.820629060268402 0.000000000000000
-12.236170768737793 -19.795818328857422 1.427469730377197 0.000000000000000
-12.235756874084473 -20.724191665649414 1.012901306152344 0.000000000000000
-12.232736587524414 -26.593429565429688 0.838093280792236 0.000000000000000
-12.228478431701660 -14.220932006835938 1.403653144836426 0.000000000000000
-12.225329399108887 -11.100036621093750 2.021654605865479 0.000000000000000
-12.215051651000977 -13.810490608215332 3.834981679916382 0.000000000000000
-12.209378242492676 -11.233395576477051 0.411267787218094 0.000000000000000
-12.209204673767090 -19.203046798706055 1.483509778976440 0.000000000000000
-12.200300216674805 -11.291279792785645 -0.130563259124756 0.000000000000000
-12.197620391845703 -11.673420906066895 1.917655706405640 0.000000000000000
-12.196228027343750 -20.774681091308594 2.035609483718872 0.000000000000000
-12.191183090209961 -18.841821670532227 0.901360094547272 0.000000000000000
-12.188190460205078 -18.688806533813477 2.238829135894775 0.000000000000000
-12.183546066284180 -11.983612060546875 2.532678604125977 0.000000000000000
-12.182808876037598 -10.576176643371582 0.306954205036163 0.000000000000000
-12.181597709655762 -9.114326477050781 2.024560689926147 0.000000000000000
-12.179858207702637 -17.578151702880859 1.064634084701538 0.000000000000000
-12.178660392761230 -16.792053222656250 0.593911707401276 0.000000000000000
-12.174419403076172 -16.423986434936523 -0.396117508411407 0.000000000000000
-12.173026084899902 -22.562465667724609 0.881818711757660 0.000000000000000
-12.171337127685547 -11.554613113403320 1.061743497848511 0.000000000000000
-12.168700218200684 -21.677270889282227 1.620645284652710 0.000000000000000
-12.167258262634277 -20.773466110229492 0.273127704858780 0.000000000000000
-12.164222717285156 -13.327130317687988 -0.072433069348335 0.000000000000000
-12.163524627685547 -20.965471267700195 1.486733198165894 0.000000000000000
-12.162825584411621 -11.738944053649902 1.428361892700195 0.000000000000000
-12.161678314208984 -23.950220108032227 2.695301055908203 0.000000000000000
-12.158535957336426 -12.321754455566406 0.861770868301392 0.000000000000000
-12.150876045227051 -16.630064010620117 1.461900830268860 0.000000000000000
-12.148161888122559 -18.670125961303711 1.710015535354614 0.000000000000000
-12.147661209106445 -20.331077575683594 0.450615465641022 0.000000000000000
-12.144967079162598 -19.102012634277344 1.126885175704956 0.000000000000000
-12.144340515136719 -9.342949867248535 -0.414611786603928 0.000000000000000
-12.139344215393066 -25.978448867797852 1.537913441658020 0.000000000000000
-12.139193534851074 -10.810310363769531 0.903100132942200 0.000000000000000
-12.132978439331055 -16.969684600830078 1.817759633064270 0.000000000000000
-12.130437850952148 -12.719531059265137 0.908842325210571 0.000000000000000
-12.129131317138672 -13.563788414001465 1.010939598083496 0.000000000000000
-12.120189666748047 -19.336978912353516 1.796085715293884 0.000000000000000
-12.120053291320801 -27.142992019653320 3.639367341995239 0.000000000000000
-12.116339683532715 -13.931379318237305 0.174016520380974 0.000000000000000
-12.111167907714844 -22.636545181274414 0.883056282997131 0.000000000000000
-12.103989601135254 -9.658340454101562 1.039381861686707 0.000000000000000
-12.100954055786133 -18.402343750000000 1.775919437408447 0.000000000000000
-12.100302696228027 -7.938141822814941 -0.085878074169159 0.000000000000000
-12.098956108093262 -13.356397628784180 1.348724961280823 0.000000000000000
-12.098142623901367 -18.595382690429688 1.104411244392395 0.000000000000000
-12.088362693786621 -10.744634628295898 0.929714560508728 0.000000000000000
-12.084151268005371 -17.281051635742188 0.846941351890564 0.000000000000000
-12.082742691040039 -12.203972816467285 0.954135239124298 0.000000000000000
-12.081748008728027 -12.394466400146484 1.965958118438721 0.000000000000000
-12.077332496643066 -24.246694564819336 2.184213876724243 0.000000000000000
-12.072802543640137 -9.570158958435059 0.826261579990387 0.000000000000000
-12.072188377380371 -14.538958549499512 2.800665140151978 0.000000000000000
-12.072003364562988 -16.238382339477539 0.851597309112549 0.000000000000000
-12.069979667663574 -19.407087326049805 1.445880651473999 0.000000000000000
-12.069977760314941 -10.380352973937988 1.387191891670227 0.000000000000000
-12.066239356994629 -16.274490356445312 -0.120224550366402 0.000000000000000
-12.064550399780273 -16.889547348022461 0.036226034164429 0.000000000000000
-12.062568664550781 -20.791460037231445 1.845347166061401 0.000000000000000
-12.061088562011719 -10.470507621765137 0.058540310710669 0.000000000000000
-12.050221443176270 -19.166572570800781 1.650653004646301 0.000000000000000
-12.049130439758301 -11.775509834289551 1.913592934608459 0.000000000000000
-12.048220634460449 -15.784667015075684 1.103246569633484 0.000000000000000
-12.040924072265625 -19.969919204711914 1.160894632339478 0.000000000000000
-12.040635108947754 -12.651873588562012 2.138316631317139 0.000000000000000
-12.040619850158691 -10.390986442565918 0.608204603195190 0.000000000000000
-12.030607223510742 -9.525774002075195 0.291964113712311 0.000000000000000
-12.028839111328125 -12.725475311279297 0.198663100600243 0.000000000000000
-12.022585868835449 -13.726521492004395 0.171980798244476 0.000000000000000
-12.019922256469727 -23.921834945678711 3.040802478790283 0.000000000000000
-12.017125129699707 -17.505970001220703 1.057076334953308 0.000000000000000
-12.011461257934570 -9.575588226318359 0.292268484830856 0.000000000000000
-12.008283615112305 -18.296173095703125 1.089494705200195 0.000000000000000
-12.006786346435547 -11.318978309631348 1.298655033111572 0.000000000000000
-12.004554748535156 -20.844562530517578 1.197489619255066 0.000000000000000
-11.995000839233398 -20.801942825317383 1.149203300476074 0.000000000000000
-11.986455917358398 -20.560110092163086 1.964999198913574 0.000000000000000
-11.972825050354004 -9.501803398132324 2.265278339385986 0.000000000000000
-11.967775344848633 -14.766324043273926 0.179143533110619 0.000000000000000
-11.962135314941406 -18.445434570312500 1.560456037521362 0.000000000000000
-11.956250190734863 -23.838657379150391 2.253518104553223 0.000000000000000
-11.955707550048828 -12.841581344604492 1.528862714767456 0.000000000000000
-11.954926490783691 -9.130976676940918 0.517430841922760 0.000000000000000
-11.948748588562012 -20.647541046142578 0.453887403011322 0.000000000000000
-11.942842483520508 -9.121747016906738 0.055080376565456 0.000000000000000
-11.936377525329590 -18.693853378295898 1.403198719024658 0.000000000000000
-11.930459976196289 -20.263603210449219 1.170639991760254 0.000000000000000
-11.918972969055176 -19.916728973388672 1.513174772262573 0.000000000000000
-11.918726921081543 -9.328019142150879 1.852980852127075 0.000000000000000
-11.918017387390137 -9.240569114685059 0.315895467996597 0.000000000000000
-11.915324211120605 -9.390589714050293 -0.177412867546082 0.000000000000000
-11.908350944519043 -25.798044204711914 0.758931219577789 0.000000000000000
-11.907962799072266 -16.426652908325195 0.970990717411041 0.000000000000000
-11.905399322509766 -19.292299270629883 1.084954977035522 0.000000000000000
-11.902114868164062 -25.531150817871094 1.999422788619995 0.000000000000000
-11.901060104370117 -15.222803115844727 0.219219148159027 0.000000000000000
-11.899498939514160 -21.722276687622070 0.994786977767944 0.000000000000000
-11.897674560546875 -9.614276885986328 1.203876495361328 0.000000000000000
-11.885307312011719 -17.818572998046875 0.860265135765076 0.000000000000000
-11.885269165039062 -15.202604293823242 0.515423834323883 0.000000000000000
-11.883781433105469 -10.533126831054688 0.058203112334013 0.000000000000000
-11.880054473876953 -20.769790649414062 0.777030706405640 0.000000000000000
-11.877085685729980 -14.103495597839355 0.244590252637863 0.000000000000000
-11.875220298767090 -10.320786476135254 0.843827962875366 0.000000000000000
-11.870968818664551 -12.505895614624023 0.195622801780701 0.000000000000000
-11.868767738342285 -16.493436813354492 0.035465072840452 0.000000000000000
-11.864259719848633 -12.256655693054199 1.937518477439880 0.000000000000000
-11.860066413879395 -16.389463424682617 0.618099570274353 0.000000000000000
-11.852543830871582 -25.993606567382812 1.257312297821045 0.000000000000000
-11.851808547973633 -19.324497222900391 1.390491127967834 0.000000000000000
-11.851481437683105 -9.140720367431641 -0.175027400255203 0.000000000000000
-11.841456413269043 -20.217216491699219 1.708244085311890 0.000000000000000
-11.838464736938477 -9.517691612243652 0.551682174205780 0.000000000000000
-11.835159301757812 -26.015604019165039 1.038033604621887 0.000000000000000
-11.835151672363281 -11.844248771667480 -0.067214548587799 0.000000000000000
-11.833889007568359 -18.964689254760742 0.897828519344330 0.000000000000000
-11.822813987731934 -14.949879646301270 -0.076511546969414 0.000000000000000
-11.819322586059570 -19.326734542846680 2.573125600814819 0.000000000000000
-11.817959785461426 -10.144252777099609 1.135532975196838 0.000000000000000
-11.817042350769043 -20.663816452026367 1.689597129821777 0.000000000000000
-11.815318107604980 -15.513192176818848 0.783212065696716 0.000000000000000
-11.812508583068848 -12.179350852966309 0.420585483312607 0.000000000000000
-11.801786422729492 -9.437441825866699 1.850064396858215 0.000000000000000
-11.800868988037109 -9.407703399658203 0.055314946919680 0.000000000000000
-11.794851303100586 -18.612991333007812 2.697807788848877 0.000000000000000
-11.792847633361816 -9.567394256591797 1.376664876937866 0.000000000000000
-11.789065361022949 -8.515688896179199 -0.170069396495819 0.000000000000000
-11.787042617797852 -9.081835746765137 -0.345469504594803 0.000000000000000
-11.782926559448242 -17.898286819458008 1.231814384460449 0.000000000000000
-11.772381782531738 -17.798274993896484 0.939159035682678 0.000000000000000
-11.767504692077637 -18.526897430419922 2.687114000320435 0.000000000000000
-11.765140533447266 -12.069664001464844 0.839097917079926 0.000000000000000
-11.763753890991211 -20.990219116210938 1.940201759338379 0.000000000000000
-11.763642311096191 -9.401558876037598 -0.176103204488754 0.000000000000000
-11.763404846191406 -11.310689926147461 0.404527336359024 0.000000000000000
-11.760475158691406 -22.212615966796875 2.677157640457153 0.000000000000000
-11.759832382202148 -16.958686828613281 0.670180857181549 0.000000000000000
-11.751909255981445 -18.271787643432617 0.914335966110229 0.000000000000000
-11.746404647827148 -20.707698822021484 1.322697758674622 0.000000000000000
-11.744771003723145 -9.805532455444336 1.263260841369629 0.000000000000000
-11.740536689758301 -25.124992370605469 0.634186983108521 0.000000000000000
-11.737915992736816 -21.270214080810547 0.695568144321442 0.000000000000000
-11.737291336059570 -16.971048355102539 1.027243614196777 0.000000000000000
-11.734568595886230 -25.421566009521484 1.178410291671753 0.000000000000000
-11.729837417602539 -11.213588714599609 1.026638269424438 0.000000000000000
-11.720711708068848 -18.722137451171875 1.781063437461853 0.000000000000000
-11.717763900756836 -25.953172683715820 0.487104654312134 0.000000000000000
-11.712196350097656 -15.274115562438965 0.884132266044617 0.000000000000000
-11.708395957946777 -16.033279418945312 0.950148344039917 0.000000000000000
-11.700165748596191 -16.253751754760742 1.151239156723022 0.000000000000000
-11.693327903747559 -15.205495834350586 0.291285634040833 0.000000000000000
-11.688222885131836 -18.161621093750000 1.532985210418701 0.000000000000000
-11.686096191406250 -20.783563613891602 0.453659147024155 0.000000000000000
-11.680727005004883 -21.452472686767578 1.028039336204529 0.000000000000000
-11.673985481262207 -20.501585006713867 2.679661989212036 0.000000000000000
-11.673199653625488 -17.651004791259766 1.053496479988098 0.000000000000000
-11.672766685485840 -18.827711105346680 1.102820038795471 0.000000000000000
-11.671703338623047 -13.000108718872070 0.198209315538406 0.000000000000000
-11.667133331298828 -15.870107650756836 1.170233368873596 0.000000000000000
-11.664584159851074 -9.942092895507812 0.881048023700714 0.000000000000000
-11.657832145690918 -16.314750671386719 -0.080493673682213 0.000000000000000
-11.657763481140137 -11.666724205017090 -0.319559544324875 0.000000000000000
-11.656661987304688 -18.912115097045898 1.791351079940796 0.000000000000000
-11.654669761657715 -8.924214363098145 -0.171659693121910 0.000000000000000
-11.649237632751465 -19.889038085937500 2.089554786682129 0.000000000000000
-11.640619277954102 -10.011098861694336 1.089770436286926 0.000000000000000
-11.637933731079102 -20.234086990356445 3.106225728988647 0.000000000000000
-11.637686729431152 -18.734603881835938 0.758614361286163 0.000000000000000
-11.627259254455566 -20.222061157226562 1.520721197128296 0.000000000000000
-11.616882324218750 -12.812540054321289 0.196212708950043 0.000000000000000
-11.616488456726074 -19.992824554443359 1.685847640037537 0.000000000000000
-11.615229606628418 -19.688879013061523 1.138022780418396 0.000000000000000
-11.613904953002930 -8.422834396362305 -0.195321455597878 0.000000000000000
-11.610387802124023 -17.397199630737305 0.719425499439240 0.000000000000000
-11.607367515563965 -11.031159400939941 1.818793535232544 0.000000000000000
-11.606646537780762 -18.034864425659180 1.191559672355652 0.000000000000000
-11.606238365173340 -11.856868743896484 -0.066604383289814 0.000000000000000
-11.605809211730957 -15.385784149169922 1.107852458953857 0.000000000000000
-11.597043991088867 -16.110496520996094 0.835450053215027 0.000000000000000
-11.594065666198730 -10.358280181884766 0.803912341594696 0.000000000000000
-11.592220306396484 -19.980751037597656 2.317902803421021 0.000000000000000
-11.584088325500488 -18.358963012695312 1.666538000106812 0.000000000000000
-11.579407691955566 -25.811117172241211 0.375268310308456 1.000000000000000
-11.579094886779785 -13.548758506774902 1.024522542953491 0.000000000000000
-11.572587013244629 -22.818716049194336 0.732544541358948 0.000000000000000
-11.566349029541016 -19.783922195434570 0.832314193248749 0.000000000000000
-11.565778732299805 -10.352627754211426 0.892296373844147 0.000000000000000
-11.565460205078125 -9.829760551452637 1.723994135856628 0.000000000000000
-11.564944267272949 -10.250527381896973 1.246101379394531 0.000000000000000
-11.560202598571777 -21.408718109130859 1.024002432823181 0.000000000000000
-11.536390304565430 -20.856821060180664 2.707198858261108 0.000000000000000
-11.528160095214844 -12.195800781250000 0.448245733976364 0.000000000000000
-11.527750968933105 -12.918474197387695 0.695403754711151 0.000000000000000
-11.526166915893555 -19.517663955688477 1.608883976936340 0.000000000000000
-11.522763252258301 -14.360148429870605 -0.675123691558838 0.000000000000000
-11.520489692687988 -19.159679412841797 1.457487940788269 0.000000000000000
-11.519737243652344 -24.842124938964844 2.208004236221313 0.000000000000000
-11.518173217773438 -19.345706939697266 1.424413442611694 0.000000000000000
-11.518049240112305 -25.275230407714844 0.475132256746292 0.000000000000000
-11.511145591735840 -18.103019714355469 1.646942496299744 0.000000000000000
-11.507094383239746 -9.849544525146484 1.221346497535706 0.000000000000000
-11.500041007995605 -20.828855514526367 0.589791119098663 0.000000000000000
-11.498774528503418 -19.668336868286133 0.477235913276672 0.000000000000000
-11.494404792785645 -12.983843803405762 -0.335987001657486 0.000000000000000
-11.492646217346191 -17.859100341796875 2.600103616714478 0.000000000000000
-11.482522010803223 -24.454765319824219 1.605067849159241 0.000000000000000
-11.475763320922852 -23.081350326538086 3.430197715759277 0.000000000000000
-11.457138061523438 -10.725521087646484 0.751093268394470 0.000000000000000
-11.449559211730957 -10.248599052429199 0.646729588508606 0.000000000000000
-11.449116706848145 3.831267356872559 -0.674993693828583 1.000000000000000
-11.447707176208496 -15.328109741210938 0.180312171578407 0.000000000000000
-11.445040702819824 -20.691669464111328 0.813341319561005 0.000000000000000
-11.444598197937012 -27.052314758300781 2.255016088485718 0.000000000000000
-11.438915252685547 -21.671993255615234 0.560388982295990 0.000000000000000
-11.437632560729980 -15.539730072021484 0.181857824325562 0.000000000000000
-11.430451393127441 -15.731513977050781 1.155288338661194 0.000000000000000
-11.427043914794922 -12.689239501953125 -0.363657236099243 0.000000000000000
-11.424729347229004 -13.143574714660645 0.197574034333229 0.000000000000000
-11.421509742736816 -10.794745445251465 -0.123431913554668 0.000000000000000
-11.421380996704102 -14.986193656921387 0.249948963522911 0.000000000000000
-11.418168067932129 -11.972671508789062 2.025543451309204 0.000000000000000
-11.416857719421387 -24.991878509521484 2.611776351928711 0.000000000000000
-11.415444374084473 -18.727954864501953 1.556774377822876 0.000000000000000
-11.412414550781250 -17.743944168090820 1.212761044502258 0.000000000000000
-11.412351608276367 -24.813379287719727 0.467196315526962 0.000000000000000
-11.402911186218262 -24.507202148437500 2.569382429122925 0.000000000000000
-11.401112556457520 -10.619812011718750 1.045811057090759 0.000000000000000
-11.400421142578125 -11.679187774658203 -0.316227614879608 0.000000000000000
-11.391963958740234 -19.238224029541016 1.156088709831238 0.000000000000000
-11.386376380920410 -15.245990753173828 0.764269888401031 0.000000000000000
-11.374521255493164 -20.102769851684570 1.016542911529541 0.000000000000000
-11.372865676879883 3.862558603286743 -0.163521140813828 1.000000000000000
-11.368069648742676 -20.053773880004883 0.438592970371246 0.000000000000000
-11.366595268249512 -23.464843750000000 0.997064232826233 0.000000000000000
-11.366005897521973 -22.729089736938477 1.852803587913513 0.000000000000000
-11.363411903381348 -24.874883651733398 2.046670913696289 0.000000000000000
-11.362727165222168 -10.038055419921875 1.134684324264526 0.000000000000000
-11.361908912658691 -14.747884750366211 1.141926646232605 0.000000000000000
-11.352905273437500 -10.504810333251953 1.277084946632385 0.000000000000000
-11.349144935607910 -21.321290969848633 0.552341639995575 0.000000000000000
-11.347574234008789 -12.721035003662109 0.422567963600159 0.000000000000000
-11.344260215759277 -9.935345649719238 0.055270966142416 0.000000000000000
-11.337865829467773 -24.694555282592773 1.666728138923645 0.000000000000000
-11.337094306945801 -15.078755378723145 0.503889322280884 0.000000000000000
-11.334983825683594 -20.662662506103516 1.900336742401123 0.000000000000000
-11.333299636840820 -15.198146820068359 1.126346707344055 0.000000000000000
-11.330814361572266 -25.305469512939453 2.128563642501831 0.000000000000000
-11.325501441955566 -10.385549545288086 0.735413670539856 0.000000000000000
-11.324482917785645 -12.149122238159180 0.954736530780792 0.000000000000000
-11.324359893798828 -20.666379928588867 2.364628314971924 0.000000000000000
-11.323505401611328 -12.308183670043945 1.457332730293274 0.000000000000000
-11.322001457214355 -10.247813224792480 1.172363400459290 0.000000000000000
-11.321549415588379 -15.914496421813965 0.821994066238403 0.000000000000000
-11.320665359497070 -30.275279998779297 -1.060955882072449 1.000000000000000
-11.309957504272461 -10.371294975280762 0.970823585987091 0.000000000000000
-11.308094024658203 -11.665787696838379 0.184323787689209 0.000000000000000
-11.295238494873047 -20.320245742797852 1.874617457389832 0.000000000000000
-11.294222831726074 -30.372497558593750 -1.125925660133362 1.000000000000000
-11.291292190551758 -0.069372639060020 -1.416439056396484 0.000000000000000
-11.286819458007812 -12.108716011047363 0.696685016155243 0.000000000000000
-11.285618782043457 -19.580402374267578 0.603641867637634 0.000000000000000
-11.285484313964844 -9.899893760681152 1.427014112472534 0.000000000000000
-11.283656120300293 -15.401364326477051 1.097522258758545 0.000000000000000
-11.281580924987793 -12.554122924804688 0.677906274795532 0.000000000000000
-11.278197288513184 -19.198656082153320 1.151337981224060 0.000000000000000
-11.273548126220703 -15.147235870361328 0.613185644149780 0.000000000000000
-11.263107299804688 -11.360245704650879 2.370831012725830 0.000000000000000
-11.261226654052734 -20.528209686279297 0.805366039276123 0.000000000000000
-11.253844261169434 -19.446741104125977 1.464774012565613 0.000000000000000
-11.252395629882812 -22.900165557861328 2.313100337982178 0.000000000000000
