# This PCD file was generated using the MATLAB® pcwrite function
# from Computer Vision Toolbox®.
# .PCD v.7 - Point Cloud Data file format
VERSION .7
FIELDS x y z intensity
SIZE 8 8 8 8
TYPE F F F F
COUNT 1 1 1 1
WIDTH 643
HEIGHT 1
VIEWPOINT 0 0 0 1 0 0 0
POINTS 643
DATA ascii
3.366300582885742 -14.634650230407715 -0.579512953758240 0.000000000000000
3.375574111938477 -12.214136123657227 -0.002211681334302 0.000000000000000
3.380081176757812 -15.432561874389648 1.090877294540405 0.000000000000000
3.381229877471924 -19.944461822509766 1.833867788314819 0.000000000000000
3.381616592407227 -25.575534820556641 2.930203199386597 0.000000000000000
3.383292913436890 -20.516809463500977 1.757077217102051 0.000000000000000
3.383688926696777 -16.113883972167969 1.652164697647095 0.000000000000000
3.388609170913696 -18.981321334838867 1.554733395576477 0.000000000000000
3.389729022979736 -22.765439987182617 2.309516191482544 0.000000000000000
3.390762805938721 -32.539543151855469 2.511594772338867 0.000000000000000
3.403261899948120 -28.405630111694336 1.644561767578125 0.000000000000000
3.413418769836426 -19.346611022949219 2.911495447158813 0.000000000000000
3.421541690826416 -15.365025520324707 0.844256401062012 0.000000000000000
3.426561117172241 -23.714168548583984 1.377354979515076 0.000000000000000
3.433866739273071 -17.603361129760742 1.704846501350403 0.000000000000000
3.434653282165527 -19.403614044189453 1.170707941055298 0.000000000000000
3.438751459121704 -14.714314460754395 2.010841846466064 0.000000000000000
3.441189050674438 -17.187114715576172 -0.743844389915466 0.000000000000000
3.446309804916382 -29.430107116699219 2.973257541656494 0.000000000000000
3.446658849716187 -27.941751480102539 1.618391990661621 0.000000000000000
3.446959257125854 -15.628243446350098 1.521265149116516 0.000000000000000
3.449124574661255 -12.828413963317871 -0.002318495418876 0.000000000000000
3.453140020370483 -15.012175559997559 2.049887418746948 0.000000000000000
3.462815761566162 -19.546823501586914 2.941988468170166 0.000000000000000
3.475317239761353 -16.022521972656250 0.974048018455505 0.000000000000000
3.476140499114990 -18.208749771118164 2.269561290740967 0.000000000000000
3.485697269439697 -14.695115089416504 2.009786844253540 0.000000000000000
3.492901802062988 -20.730476379394531 2.797555446624756 0.000000000000000
3.499344825744629 -15.977089881896973 2.176521301269531 0.000000000000000
3.503404140472412 -16.267101287841797 0.892456829547882 0.000000000000000
3.505247831344604 -15.578090667724609 0.518539786338806 0.000000000000000
3.508856058120728 -32.132431030273438 2.930288314819336 0.000000000000000
3.511110544204712 -15.849374771118164 0.277690678834915 0.000000000000000
3.512969493865967 -18.204940795898438 2.105900287628174 0.000000000000000
3.518553972244263 -14.606406211853027 1.037421822547913 0.000000000000000
3.529503107070923 -15.839428901672363 0.807872891426086 0.000000000000000
3.530739784240723 -17.634378433227539 2.042700529098511 0.000000000000000
3.537684440612793 -25.501235961914062 0.737123668193817 0.000000000000000
3.544676065444946 -15.753318786621094 -0.964976429939270 0.000000000000000
3.550283432006836 -19.397354125976562 0.981698811054230 0.000000000000000
3.564013242721558 -18.822376251220703 2.175871133804321 0.000000000000000
3.564446210861206 -14.952714920043945 1.269185423851013 0.000000000000000
3.564465999603271 -17.668233871459961 1.001398205757141 0.000000000000000
3.578660488128662 -20.217163085937500 1.951640486717224 0.000000000000000
3.579570293426514 -17.559637069702148 2.035477876663208 0.000000000000000
3.580961704254150 -33.060039520263672 2.167886495590210 0.000000000000000
3.581367731094360 -14.939296722412109 -0.209152400493622 0.000000000000000
3.585639238357544 -21.150186538696289 -0.415644407272339 0.000000000000000
3.590911388397217 -19.634809494018555 1.378269314765930 0.000000000000000
3.592736244201660 -20.786733627319336 1.497301459312439 0.000000000000000
3.601771354675293 -15.431315422058105 1.308353781700134 0.000000000000000
3.602658748626709 -21.174316406250000 1.871580719947815 0.000000000000000
3.609773397445679 -16.337949752807617 1.678921937942505 0.000000000000000
3.617933273315430 -14.213404655456543 -0.199677646160126 0.000000000000000
3.624507427215576 -14.818859100341797 1.053403377532959 0.000000000000000
3.628685235977173 -22.741054534912109 2.006654024124146 0.000000000000000
3.631124019622803 -17.213054656982422 0.064477905631065 0.000000000000000
3.639603376388550 -23.930122375488281 1.438061118125916 0.000000000000000
3.640294790267944 -15.448904991149902 -0.002770186634734 0.000000000000000
3.658376455307007 -18.123935699462891 1.062858819961548 0.000000000000000
3.666762113571167 -15.458454132080078 1.342478394508362 0.000000000000000
3.673184871673584 -16.624952316284180 1.307082533836365 0.000000000000000
3.676378488540649 -17.900400161743164 1.297075986862183 0.000000000000000
3.681626796722412 -16.194267272949219 1.371220588684082 0.000000000000000
3.682293653488159 -18.730739593505859 2.168196916580200 0.000000000000000
3.682345151901245 -20.371757507324219 3.068065404891968 0.000000000000000
3.682718753814697 -14.078726768493652 -0.673547685146332 0.000000000000000
3.684452533721924 -24.896928787231445 3.081334114074707 0.000000000000000
3.685825586318970 -22.661733627319336 1.364046812057495 0.000000000000000
3.690746784210205 -20.659160614013672 1.611119389533997 0.000000000000000
3.712420940399170 -14.584609031677246 -0.436148434877396 0.000000000000000
3.729866504669189 -22.774454116821289 1.460023641586304 0.000000000000000
3.732458114624023 -17.541763305664062 1.625851392745972 0.000000000000000
3.745481491088867 -21.480560302734375 2.322547674179077 0.000000000000000
3.751689672470093 -23.628517150878906 1.375288844108582 0.000000000000000
3.768057107925415 -18.765216827392578 1.617305755615234 0.000000000000000
3.773941278457642 -16.706863403320312 1.050582408905029 0.000000000000000
3.783557176589966 -20.143358230590820 1.948233842849731 0.000000000000000
3.807653188705444 -25.717042922973633 2.356798410415649 0.000000000000000
3.808040857315063 -19.324048995971680 1.321997284889221 0.000000000000000
3.808558464050293 -23.473209381103516 1.687898039817810 0.000000000000000
3.817345380783081 -19.360565185546875 -0.761526584625244 0.000000000000000
3.823531627655029 -19.271402359008789 3.358330488204956 0.000000000000000
3.827486038208008 -21.693466186523438 1.919498682022095 0.000000000000000
3.838313341140747 -16.354457855224609 1.387019515037537 0.000000000000000
3.843550920486450 -24.207067489624023 1.031571507453918 0.000000000000000
3.844242572784424 -21.071954727172852 1.313840270042419 0.000000000000000
3.845407009124756 -18.713453292846680 1.098211050033569 0.000000000000000
3.851337194442749 -23.168664932250977 1.395360469818115 0.000000000000000
3.853172302246094 -18.450527191162109 1.642407417297363 0.000000000000000
3.858982324600220 -19.228464126586914 1.316371679306030 0.000000000000000
3.861663103103638 -28.757993698120117 0.830766677856445 0.000000000000000
3.871203422546387 -20.282016754150391 1.147181153297424 0.000000000000000
3.875257015228271 -27.788528442382812 2.153976678848267 0.000000000000000
3.875741243362427 -24.989612579345703 1.794949293136597 0.000000000000000
3.884004831314087 -21.824541091918945 1.744616627693176 0.000000000000000
3.894157886505127 -22.530687332153320 1.270331263542175 0.000000000000000
3.902371644973755 -16.219621658325195 1.119746446609497 0.000000000000000
3.907698869705200 -19.359102249145508 3.375853538513184 0.000000000000000
3.915890455245972 -19.389211654663086 1.633220434188843 0.000000000000000
3.918987751007080 -20.470285415649414 1.981164932250977 0.000000000000000
3.921390056610107 -20.162530899047852 1.141190171241760 0.000000000000000
3.923593759536743 -19.192466735839844 -0.755973637104034 0.000000000000000
3.928306102752686 -19.323776245117188 1.551921010017395 0.000000000000000
3.934701442718506 -15.355801582336426 0.058100488036871 0.000000000000000
3.939514398574829 -17.015134811401367 2.588386774063110 0.000000000000000
3.942943096160889 -22.775053024291992 1.328688263893127 0.000000000000000
3.948908090591431 -17.024597167968750 1.341681003570557 0.000000000000000
3.952735185623169 -16.934974670410156 2.129080772399902 0.000000000000000
3.956981658935547 -17.145032882690430 1.248931288719177 0.000000000000000
3.971120834350586 -18.609174728393555 2.820016384124756 0.000000000000000
3.973700284957886 -23.743335723876953 1.894630432128906 0.000000000000000
3.980251550674438 -22.952436447143555 2.214332342147827 0.000000000000000
3.983929872512817 -20.109252929687500 3.038158893585205 0.000000000000000
3.990800142288208 -26.319595336914062 1.120381116867065 1.000000000000000
3.999465703964233 -19.084453582763672 2.889798641204834 0.000000000000000
4.011178493499756 -17.947916030883789 2.251575946807861 0.000000000000000
4.027097702026367 -19.021081924438477 1.642902493476868 0.000000000000000
4.058523654937744 -18.440809249877930 3.227582693099976 0.000000000000000
4.066265583038330 -21.681858062744141 -0.427422553300858 0.000000000000000
4.066920280456543 -14.466589927673340 1.706839919090271 0.000000000000000
4.066976547241211 -18.593585968017578 1.277528762817383 0.000000000000000
4.080543518066406 -25.132863998413086 1.463669180870056 0.000000000000000
4.085592269897461 -17.421743392944336 2.190814495086670 0.000000000000000
4.094764232635498 -18.533033370971680 -0.003312635002658 0.000000000000000
4.105853557586670 -18.054475784301758 3.164904594421387 0.000000000000000
4.107857704162598 -8.498267173767090 -1.038742303848267 1.000000000000000
4.117681980133057 -17.547552108764648 1.001398205757141 0.000000000000000
4.129362583160400 -20.102432250976562 1.694441556930542 0.000000000000000
4.136155605316162 -22.576082229614258 0.084123291075230 0.000000000000000
4.140203952789307 -16.306863784790039 2.493389606475830 0.000000000000000
4.140212059020996 -16.820430755615234 0.229787513613701 0.000000000000000
4.142415046691895 -16.363449096679688 2.501599311828613 0.000000000000000
4.149775505065918 -17.676010131835938 -0.351794481277466 0.000000000000000
4.163662433624268 -14.503217697143555 3.138526916503906 0.000000000000000
4.177188396453857 -16.283224105834961 2.058111429214478 0.000000000000000
4.198045253753662 -15.135604858398438 1.784033775329590 0.000000000000000
4.201791286468506 -26.828992843627930 2.137226104736328 0.000000000000000
4.208337783813477 -28.734741210937500 3.298566341400146 0.000000000000000
4.209578037261963 -15.705973625183105 -0.877781450748444 0.000000000000000
4.213683605194092 -20.874979019165039 -0.412622392177582 0.000000000000000
4.242742538452148 -17.895042419433594 -0.179757684469223 0.000000000000000
4.270709514617920 -18.480808258056641 -0.076142229139805 0.000000000000000
4.271605014801025 -19.693708419799805 1.508136034011841 0.000000000000000
4.273544311523438 9.829426765441895 -1.033937811851501 0.000000000000000
4.288488864898682 -15.771204948425293 -0.065608844161034 0.000000000000000
4.311646461486816 -20.365083694458008 -0.803328037261963 0.000000000000000
4.320750236511230 -18.927602767944336 1.948092699050903 0.000000000000000
4.327351093292236 -29.404191970825195 1.937592387199402 0.000000000000000
4.330833435058594 -20.354001998901367 1.196232795715332 0.000000000000000
4.343805313110352 -19.122423171997070 2.400805950164795 0.000000000000000
4.354646205902100 -20.076559066772461 1.952776074409485 0.000000000000000
4.385983943939209 -15.078969001770020 3.266413927078247 0.000000000000000
4.393209934234619 -19.318054199218750 1.138842940330505 0.000000000000000
4.402769088745117 -19.506462097167969 1.535186767578125 0.000000000000000
4.413314342498779 -13.852941513061523 -1.093189835548401 0.000000000000000
4.414266109466553 -19.653209686279297 2.021176099777222 0.000000000000000
4.414688587188721 -19.730768203735352 1.162257909774780 0.000000000000000
4.432274341583252 -20.479307174682617 0.881873309612274 0.000000000000000
4.439854145050049 -18.639448165893555 2.345877647399902 0.000000000000000
4.445220947265625 -19.020967483520508 1.348786234855652 0.000000000000000
4.448720455169678 -18.394420623779297 0.760096192359924 0.000000000000000
4.449362754821777 -14.828615188598633 1.248351812362671 0.000000000000000
4.469834804534912 -28.003105163574219 2.845461368560791 0.000000000000000
4.474253654479980 -22.072486877441406 0.341999471187592 0.000000000000000
4.480713844299316 -14.716361999511719 1.062220811843872 0.000000000000000
4.513683795928955 -21.813014984130859 1.753090262413025 0.000000000000000
4.516541004180908 -19.329198837280273 1.294070124626160 0.000000000000000
4.521558761596680 -26.670783996582031 1.555033683776855 0.000000000000000
4.531621932983398 -14.942512512207031 -0.212582930922508 0.000000000000000
4.533078193664551 -15.092306137084961 1.301112532615662 0.000000000000000
4.533477306365967 -15.302794456481934 1.286930799484253 0.000000000000000
4.536795139312744 -23.009424209594727 1.981721758842468 0.000000000000000
4.541144847869873 -14.673690795898438 0.853396356105804 0.000000000000000
4.550629615783691 -14.579907417297363 1.290611386299133 0.000000000000000
4.555810451507568 -19.714536666870117 0.851597309112549 0.000000000000000
4.571063041687012 -15.482241630554199 1.619816303253174 0.000000000000000
4.593242645263672 -27.139604568481445 1.529279112815857 0.000000000000000
4.604903697967529 -19.926980972290039 1.854091763496399 0.000000000000000
4.628801345825195 -16.007490158081055 1.375828623771667 0.000000000000000
4.630430221557617 -25.005485534667969 0.825846731662750 1.000000000000000
4.632802009582520 -18.427610397338867 -0.514153242111206 0.000000000000000
4.636245250701904 -19.269857406616211 -0.802972674369812 0.000000000000000
4.646596431732178 -19.948621749877930 1.019685983657837 0.000000000000000
4.648159027099609 -14.324275016784668 1.843745112419128 0.000000000000000
4.649323463439941 -17.773975372314453 -0.003206519177184 0.000000000000000
4.651862621307373 -16.087242126464844 1.124032497406006 0.000000000000000
4.652040481567383 -16.087856292724609 2.050334215164185 0.000000000000000
4.653904438018799 -23.377565383911133 2.391784906387329 0.000000000000000
4.661448001861572 -15.535443305969238 1.842267751693726 0.000000000000000
4.665076732635498 -20.805528640747070 0.282843977212906 0.000000000000000
4.668622016906738 -22.667407989501953 1.374959111213684 0.000000000000000
4.676508426666260 -29.754806518554688 1.963614344596863 0.000000000000000
4.683183193206787 -33.230003356933594 3.042241811752319 0.000000000000000
4.683953285217285 -21.236677169799805 0.622645676136017 0.000000000000000
4.692037582397461 -25.057170867919922 1.416336178779602 0.000000000000000
4.708340167999268 -7.419442176818848 -0.542072474956512 1.000000000000000
4.710824966430664 -33.944705963134766 2.697110176086426 0.000000000000000
4.713937759399414 -14.657578468322754 1.152297139167786 0.000000000000000
4.739510536193848 -20.797178268432617 1.267258763313293 0.000000000000000
4.758497714996338 -16.829624176025391 2.141233205795288 0.000000000000000
4.765964508056641 -19.509336471557617 -0.196294769644737 0.000000000000000
4.773347854614258 -17.327161788940430 -0.348230063915253 0.000000000000000
4.779237270355225 -15.994919776916504 2.474038362503052 0.000000000000000
4.790545940399170 -6.911722660064697 -0.958152055740356 0.000000000000000
4.794878482818604 -23.362958908081055 2.919951915740967 0.000000000000000
4.796083927154541 -18.507757186889648 -0.186872929334641 0.000000000000000
4.809358596801758 10.462071418762207 -1.110753417015076 0.000000000000000
4.812140941619873 -15.359318733215332 1.142446398735046 0.000000000000000
4.822196960449219 -15.581847190856934 1.157739400863647 0.000000000000000
4.829418182373047 -36.628753662109375 2.907694339752197 0.000000000000000
4.831160545349121 -22.462644577026367 1.542196273803711 0.000000000000000
4.841471672058105 -15.595930099487305 1.422956824302673 0.000000000000000
4.848039150238037 -16.331113815307617 0.913664996623993 0.000000000000000
4.857344627380371 -24.974908828735352 0.239800512790680 0.000000000000000
4.880355358123779 -20.574758529663086 1.460105776786804 0.000000000000000
4.881252288818359 -16.781696319580078 1.038336157798767 0.000000000000000
4.882075309753418 -23.496158599853516 1.610774040222168 0.000000000000000
4.895511150360107 -36.155685424804688 3.886305809020996 0.000000000000000
4.916226863861084 10.596913337707520 -1.126884698867798 0.000000000000000
4.917250633239746 -16.498788833618164 2.551443576812744 0.000000000000000
4.920061111450195 -33.230289459228516 1.931051611900330 0.000000000000000
4.964742660522461 -16.512735366821289 1.190623998641968 0.000000000000000
4.967954635620117 -16.892721176147461 1.453836083412170 0.000000000000000
4.969145298004150 -5.443625926971436 -0.782483875751495 1.000000000000000
4.973874092102051 -15.272629737854004 0.243912264704704 0.000000000000000
4.977825164794922 -21.496271133422852 1.310908198356628 0.000000000000000
4.990520000457764 -23.604112625122070 1.991989254951477 0.000000000000000
4.991958141326904 -21.775079727172852 0.425048649311066 0.000000000000000
4.993924617767334 -22.455635070800781 2.816414117813110 0.000000000000000
5.007263183593750 -15.848212242126465 1.147639155387878 0.000000000000000
5.010292053222656 -17.452268600463867 1.358874678611755 0.000000000000000
5.032061100006104 -21.532037734985352 1.185943484306335 0.000000000000000
5.064258575439453 -17.433565139770508 1.498929142951965 0.000000000000000
5.099551200866699 -17.763183593750000 1.756703615188599 0.000000000000000
5.115856647491455 -15.273734092712402 1.972073316574097 0.000000000000000
5.119878768920898 -16.122327804565430 1.607945799827576 0.000000000000000
5.126813888549805 -15.567651748657227 1.557981491088867 0.000000000000000
5.134575366973877 -21.532684326171875 0.931660532951355 0.000000000000000
5.140418529510498 -15.084344863891602 1.514830470085144 0.000000000000000
5.149003982543945 -14.199179649353027 0.984669566154480 0.000000000000000
5.152470111846924 -24.227981567382812 1.376173615455627 0.000000000000000
5.170553684234619 -27.239261627197266 2.289207696914673 0.000000000000000
5.194349288940430 -24.420728683471680 2.061439037322998 0.000000000000000
5.213783264160156 -16.945560455322266 -0.479746460914612 0.000000000000000
5.216598510742188 -15.520522117614746 2.004641294479370 0.000000000000000
5.217752456665039 -17.783390045166016 0.922629833221436 0.000000000000000
5.245213508605957 -23.585578918457031 1.994951486587524 0.000000000000000
5.246303558349609 -22.655670166015625 2.210546970367432 0.000000000000000
5.246712684631348 -24.923295974731445 0.729224681854248 0.000000000000000
5.248322010040283 -29.698030471801758 1.733630776405334 0.000000000000000
5.251687526702881 -14.641625404357910 1.014074325561523 0.000000000000000
5.252208709716797 -17.126798629760742 1.797532916069031 0.000000000000000
5.254666805267334 -15.208041191101074 1.266330003738403 0.000000000000000
5.256191730499268 -24.715702056884766 1.793533205986023 0.000000000000000
5.260568618774414 -27.519456863403320 1.610587000846863 0.000000000000000
5.273492813110352 -15.299720764160156 1.538298487663269 0.000000000000000
5.276605606079102 -17.423097610473633 1.826686382293701 0.000000000000000
5.287262916564941 -16.533296585083008 1.466756939888000 0.000000000000000
5.307888031005859 -16.504413604736328 3.606088161468506 0.000000000000000
5.315778732299805 -18.040534973144531 1.407533884048462 0.000000000000000
5.319137096405029 -16.922651290893555 1.779960870742798 0.000000000000000
5.336082458496094 -16.888940811157227 2.356974840164185 0.000000000000000
5.339209556579590 -18.701313018798828 2.588081836700439 0.000000000000000
5.339732170104980 -16.025671005249023 1.605674743652344 0.000000000000000
5.342663288116455 -16.802511215209961 1.769178152084351 0.000000000000000
5.346474170684814 -25.695169448852539 1.812250494956970 0.000000000000000
5.349977016448975 -16.661231994628906 1.005928277969360 0.000000000000000
5.360769748687744 -15.515125274658203 1.748477578163147 0.000000000000000
5.363470077514648 -27.536205291748047 1.612653017044067 0.000000000000000
5.364346981048584 -15.646588325500488 1.142128348350525 0.000000000000000
5.373543739318848 -17.233385086059570 0.100820861756802 0.000000000000000
5.390742778778076 -22.279256820678711 1.317669510841370 0.000000000000000
5.401770591735840 -23.752950668334961 -0.471977978944778 0.000000000000000
5.431934356689453 -18.200178146362305 3.950650453567505 0.000000000000000
5.433365345001221 -24.591583251953125 1.544772386550903 0.000000000000000
5.465731143951416 -17.453975677490234 1.510120034217834 0.000000000000000
5.471386432647705 -25.404888153076172 2.195925474166870 0.000000000000000
5.490319252014160 -18.240018844604492 0.948285996913910 0.000000000000000
5.497115612030029 -16.082317352294922 1.810333013534546 0.000000000000000
5.498157978057861 -15.388756752014160 1.286101579666138 0.000000000000000
5.517360687255859 -16.753551483154297 1.320066928863525 0.000000000000000
5.534502029418945 11.506019592285156 -0.051253903657198 0.000000000000000
5.539246082305908 11.507644653320312 -0.468306601047516 0.000000000000000
5.541327953338623 -23.573753356933594 1.812330484390259 0.000000000000000
5.542699813842773 -17.040456771850586 1.703332424163818 0.000000000000000
5.555748462677002 -25.614093780517578 0.347678959369659 0.000000000000000
5.558568954467773 -18.932746887207031 0.072321392595768 0.000000000000000
5.568395137786865 11.473773002624512 -0.247108504176140 0.000000000000000
5.568599224090576 11.466040611267090 -0.663566768169403 0.000000000000000
5.572422027587891 11.576566696166992 -1.065321087837219 0.000000000000000
5.580924987792969 11.491419792175293 -0.861949443817139 0.000000000000000
5.588290691375732 -19.107990264892578 0.378784835338593 0.000000000000000
5.611424922943115 -16.294910430908203 2.945868492126465 0.000000000000000
5.616230487823486 -17.369520187377930 1.225291848182678 0.000000000000000
5.633966922760010 -16.836196899414062 2.016517877578735 0.000000000000000
5.641816139221191 -14.384388923645020 2.289907455444336 0.000000000000000
5.642796516418457 -17.986385345458984 1.119941592216492 0.000000000000000
5.681228160858154 -16.389755249023438 2.123733997344971 0.000000000000000
5.685928344726562 -17.064680099487305 3.741306781768799 0.000000000000000
5.687613487243652 -19.447603225708008 1.633820295333862 0.000000000000000
5.700736999511719 -14.386679649353027 2.293425798416138 0.000000000000000
5.718003749847412 11.669829368591309 -1.077551007270813 0.000000000000000
5.720324039459229 -19.815925598144531 1.663076043128967 0.000000000000000
5.725021362304688 -17.722892761230469 0.354359358549118 0.000000000000000
5.729242801666260 -17.299320220947266 2.425040483474731 0.000000000000000
5.746155738830566 -24.475805282592773 1.833024859428406 0.000000000000000
5.776895046234131 -31.451093673706055 3.914981365203857 0.000000000000000
5.794251918792725 -17.299129486083984 0.101893194019794 0.000000000000000
5.796452999114990 -17.820594787597656 1.402459144592285 0.000000000000000
5.803648471832275 -9.736096382141113 -0.176079884171486 0.000000000000000
5.819818496704102 -18.779905319213867 -0.343184143304825 0.000000000000000
5.835049152374268 -17.555131912231445 1.027803421020508 0.000000000000000
5.847301959991455 -18.084163665771484 -0.477773427963257 0.000000000000000
5.879360675811768 -7.810114383697510 -0.490085214376450 1.000000000000000
5.892809391021729 -19.639263153076172 0.390122503042221 0.000000000000000
5.911461353302002 -16.958242416381836 1.707117676734924 0.000000000000000
5.916172027587891 -19.538593292236328 1.778869628906250 0.000000000000000
5.918677330017090 -18.769357681274414 0.374447584152222 0.000000000000000
5.922596454620361 -19.130458831787109 0.842850923538208 0.000000000000000
5.943753719329834 -18.345273971557617 0.960020244121552 0.000000000000000
5.980140686035156 -18.623727798461914 3.343503475189209 0.000000000000000
5.982286453247070 -18.856273651123047 0.832590699195862 0.000000000000000
6.028919696807861 -18.888822555541992 1.598777532577515 0.000000000000000
6.040323257446289 -20.238637924194336 2.007661342620850 0.000000000000000
6.041417121887207 -19.775390625000000 1.707278251647949 0.000000000000000
6.043544769287109 -15.729200363159180 1.001091718673706 0.000000000000000
6.054684162139893 -19.084472656250000 1.815088510513306 0.000000000000000
6.084058761596680 -18.247879028320312 1.930121302604675 0.000000000000000
6.122570514678955 -8.565173149108887 -1.158630847930908 1.000000000000000
6.128108978271484 -19.162626266479492 2.677253246307373 0.000000000000000
6.129253387451172 -16.121803283691406 2.556134700775146 0.000000000000000
6.153794765472412 -20.291444778442383 2.258573770523071 0.000000000000000
6.160329818725586 -19.655223846435547 1.184066176414490 0.000000000000000
6.212913990020752 -13.900857925415039 1.729411244392395 0.000000000000000
6.214215278625488 -19.706571578979492 2.346961498260498 0.000000000000000
6.231472969055176 12.289286613464355 -1.115884780883789 0.000000000000000
6.244560718536377 -21.631948471069336 2.557325839996338 0.000000000000000
6.256870269775391 -22.355358123779297 3.440431833267212 0.000000000000000
6.309504985809326 12.434566497802734 -0.082744874060154 0.000000000000000
6.341860294342041 12.396293640136719 -0.939500629901886 0.000000000000000
6.361088275909424 -15.763251304626465 2.519191265106201 0.000000000000000
6.370555877685547 12.455586433410645 -1.132997512817383 0.000000000000000
6.372667789459229 12.456512451171875 -1.160185337066650 0.000000000000000
6.373690128326416 -22.497156143188477 2.222659587860107 0.000000000000000
6.374682426452637 12.485144615173340 -0.702782630920410 0.000000000000000
6.382732868194580 -16.613718032836914 2.637644767761230 0.000000000000000
6.385316371917725 12.481236457824707 -0.083195865154266 0.000000000000000
6.386306285858154 -16.192689895629883 2.316346406936646 0.000000000000000
6.394943237304688 -34.713638305664062 2.097073554992676 0.000000000000000
6.396797180175781 -21.184543609619141 2.006131649017334 0.000000000000000
6.398526191711426 -15.897587776184082 2.280466794967651 0.000000000000000
6.425367832183838 -16.936267852783203 2.684557199478149 0.000000000000000
6.426186084747314 -18.246109008789062 1.753694891929626 0.000000000000000
6.429987430572510 -15.749914169311523 3.538479566574097 0.000000000000000
6.448488235473633 -21.766931533813477 2.578542709350586 0.000000000000000
6.478214740753174 12.584706306457520 -0.709592163562775 0.000000000000000
6.481965065002441 -21.025558471679688 2.927882909774780 0.000000000000000
6.483469009399414 -17.629154205322266 3.210733890533447 0.000000000000000
6.488849639892578 -19.041259765625000 1.195142149925232 0.000000000000000
6.504288673400879 -34.628314971923828 2.093277931213379 0.000000000000000
6.505099773406982 -8.105766296386719 -1.143754124641418 1.000000000000000
6.540438652038574 -19.076982498168945 1.081616520881653 0.000000000000000
6.567008018493652 -7.952833175659180 -1.135003089904785 1.000000000000000
6.569005012512207 -16.487075805664062 2.361723661422729 0.000000000000000
6.569715023040771 -17.729808807373047 1.232658386230469 0.000000000000000
6.580747604370117 -21.521965026855469 3.846949577331543 0.000000000000000
6.597566604614258 -20.064254760742188 1.214138269424438 0.000000000000000
6.604840755462646 -22.249078750610352 1.602561831474304 0.000000000000000
6.604963302612305 -16.334722518920898 2.611256599426270 0.000000000000000
6.608958244323730 -22.152353286743164 2.095694303512573 0.000000000000000
6.612845897674561 -18.857995986938477 2.659313678741455 0.000000000000000
6.618199825286865 -20.198253631591797 1.385667443275452 0.000000000000000
6.621639251708984 -17.624057769775391 3.218147277832031 0.000000000000000
6.622470855712891 -19.622735977172852 -0.639987230300903 0.000000000000000
6.623888015747070 -19.582941055297852 -0.678565621376038 0.000000000000000
6.641034603118896 -20.436569213867188 1.235257744789124 0.000000000000000
6.654473781585693 -8.149893760681152 -1.319852352142334 0.000000000000000
6.677264213562012 -20.042228698730469 3.130810499191284 0.000000000000000
6.694452762603760 -18.798130035400391 3.410899162292480 0.000000000000000
6.718793392181396 -19.383022308349609 0.745061337947845 0.000000000000000
6.719395160675049 -18.237237930297852 2.880416154861450 0.000000000000000
6.722274780273438 -18.578182220458984 2.244036436080933 0.000000000000000
6.730066299438477 -19.444049835205078 0.707737565040588 1.000000000000000
6.737007617950439 -20.948137283325195 2.091692447662354 0.000000000000000
6.775267124176025 -23.293302536010742 2.305933713912964 0.000000000000000
6.777850627899170 -18.904844284057617 1.077117800712585 0.000000000000000
6.779106140136719 -19.464756011962891 1.868537306785583 0.000000000000000
6.794330596923828 -18.681472778320312 -0.728916585445404 0.000000000000000
6.799466133117676 -18.971391677856445 1.042070388793945 0.000000000000000
6.830521583557129 -15.932186126708984 2.569035530090332 0.000000000000000
6.855475902557373 -35.737670898437500 3.651376008987427 0.000000000000000
6.856811046600342 -32.653671264648438 2.561502218246460 0.000000000000000
6.857540130615234 -20.529550552368164 0.702897965908051 1.000000000000000
6.862397670745850 -20.965784072875977 1.183158636093140 0.000000000000000
6.867074012756348 -36.616134643554688 2.141557216644287 0.000000000000000
6.875323772430420 -10.659832000732422 -1.346649289131165 0.000000000000000
6.903034687042236 -22.297351837158203 3.989828586578369 0.000000000000000
6.912155628204346 -19.075891494750977 -0.510040462017059 0.000000000000000
6.925899505615234 -19.566814422607422 -0.561651825904846 1.000000000000000
6.930616378784180 -19.364982604980469 0.707462549209595 1.000000000000000
6.936001777648926 -21.552701950073242 -0.351724863052368 0.000000000000000
6.941804409027100 -19.583494186401367 -0.522303938865662 0.000000000000000
6.943901062011719 -20.395248413085938 0.906766951084137 1.000000000000000
6.944479942321777 -20.262386322021484 1.107548356056213 0.000000000000000
6.958618164062500 -21.116300582885742 -0.345387488603592 0.000000000000000
6.959053993225098 -20.936775207519531 3.269788265228271 0.000000000000000
6.970482826232910 -19.877876281738281 0.805538654327393 0.000000000000000
6.973659515380859 -18.279436111450195 1.577559113502502 0.000000000000000
6.975049018859863 -15.114783287048340 2.845448732376099 0.000000000000000
6.983923912048340 -20.870323181152344 0.080663353204727 1.000000000000000
6.989416122436523 -20.599605560302734 1.082931518554688 1.000000000000000
7.000989913940430 -20.226783752441406 0.407243162393570 0.000000000000000
7.007138729095459 -19.331703186035156 -0.477399677038193 0.000000000000000
7.012496948242188 -33.888881683349609 2.189404249191284 0.000000000000000
7.032883167266846 -18.434673309326172 -0.230734944343567 0.000000000000000
7.036659717559814 -19.419494628906250 -0.836814463138580 1.000000000000000
7.048042297363281 -20.448131561279297 -0.377530485391617 0.000000000000000
7.048692703247070 -19.576356887817383 1.886233091354370 1.000000000000000
7.052924156188965 -23.028818130493164 1.802479267120361 0.000000000000000
7.087128162384033 -16.562646865844727 2.669897317886353 0.000000000000000
7.091128349304199 -19.358572006225586 1.066030740737915 0.000000000000000
7.111393928527832 -20.603910446166992 -1.092727899551392 1.000000000000000
7.115497112274170 -21.263507843017578 -0.262213706970215 0.000000000000000
7.125584125518799 -18.965351104736328 -0.703946650028229 0.000000000000000
7.132297515869141 -20.460462570190430 -0.045381318777800 1.000000000000000
7.143883228302002 -19.169374465942383 2.052725791931152 1.000000000000000
7.152937412261963 -18.791702270507812 2.017581701278687 1.000000000000000
7.167330265045166 -22.056148529052734 0.976065456867218 0.000000000000000
7.183385848999023 -20.625558853149414 0.919213771820068 1.000000000000000
7.184133529663086 -20.073339462280273 -0.576907575130463 0.000000000000000
7.189012050628662 -19.017131805419922 0.738383054733276 1.000000000000000
7.190419197082520 -18.847608566284180 -0.545854985713959 0.000000000000000
7.198632717132568 -19.775928497314453 0.885741949081421 1.000000000000000
7.201824188232422 -16.636054992675781 3.770630836486816 0.000000000000000
7.202969074249268 -18.092906951904297 1.006955981254578 0.000000000000000
7.206813812255859 -6.804669857025146 -0.077847875654697 0.000000000000000
7.211155414581299 -18.574157714843750 -0.960545420646667 0.000000000000000
7.214197158813477 -15.490655899047852 2.920932054519653 0.000000000000000
7.218709945678711 -20.030986785888672 2.023937463760376 1.000000000000000
7.220361709594727 -21.098556518554688 -0.603415906429291 0.000000000000000
7.224188327789307 -20.233097076416016 2.155761480331421 0.000000000000000
7.233748435974121 -10.399865150451660 -0.952529728412628 0.000000000000000
7.237837314605713 -20.532360076904297 -1.049531102180481 1.000000000000000
7.239403724670410 -32.603668212890625 2.563951730728149 0.000000000000000
7.247831821441650 -20.334062576293945 0.618066549301147 1.000000000000000
7.258203983306885 -20.314937591552734 0.700561046600342 0.000000000000000
7.259675979614258 -18.532121658325195 3.402137756347656 0.000000000000000
7.263934135437012 -33.574310302734375 2.836247682571411 0.000000000000000
7.264641761779785 -19.680038452148438 -0.285603851079941 1.000000000000000
7.271756172180176 -18.951478958129883 0.230291277170181 1.000000000000000
7.272130489349365 -21.405820846557617 0.169669553637505 0.000000000000000
7.287137985229492 -18.667430877685547 2.666700601577759 0.000000000000000
7.292459964752197 -19.722539901733398 0.723275601863861 1.000000000000000
7.293340682983398 -22.188037872314453 1.297623872756958 0.000000000000000
7.297366619110107 -19.708311080932617 1.086686253547668 0.000000000000000
7.303883552551270 -19.662656784057617 2.568021535873413 1.000000000000000
7.305047035217285 -19.756582260131836 0.077203422784805 1.000000000000000
7.315683841705322 -20.317871093750000 3.691265583038330 0.000000000000000
7.326717376708984 -18.678300857543945 1.501568555831909 0.000000000000000
7.327358245849609 -18.981395721435547 0.738963723182678 0.000000000000000
7.332325458526611 -21.394031524658203 0.126310929656029 0.000000000000000
7.332816600799561 -18.693849563598633 1.193007111549377 0.000000000000000
7.334182739257812 -21.483776092529297 -0.701515018939972 0.000000000000000
7.338275909423828 -18.927045822143555 -0.081489212810993 0.000000000000000
7.344975471496582 -20.952850341796875 -0.217014983296394 0.000000000000000
7.348676204681396 -19.953763961791992 -0.044535186141729 1.000000000000000
7.368570327758789 -19.821956634521484 -0.734782516956329 0.000000000000000
7.377217769622803 -21.442003250122070 -0.134561300277710 0.000000000000000
7.381518840789795 -18.651191711425781 1.462464094161987 1.000000000000000
7.390060901641846 -18.819499969482422 2.028764009475708 1.000000000000000
7.403685092926025 -6.327366828918457 -0.638334572315216 1.000000000000000
7.404940128326416 -24.226524353027344 1.407460451126099 0.000000000000000
7.416707038879395 -20.375019073486328 -0.753395140171051 0.000000000000000
7.416817188262939 -20.038434982299805 -0.947848737239838 0.000000000000000
7.418291568756104 -19.744417190551758 1.537797808647156 0.000000000000000
7.426578044891357 -23.841066360473633 1.627931594848633 0.000000000000000
7.436101913452148 -21.399265289306641 -0.264926552772522 1.000000000000000
7.445703983306885 -6.312628746032715 -0.771679043769836 1.000000000000000
7.461194992065430 -19.175531387329102 0.035911876708269 1.000000000000000
7.481082916259766 -19.164258956909180 -0.793918848037720 1.000000000000000
7.491590976715088 -20.028644561767578 1.435311317443848 0.000000000000000
7.492978572845459 -18.806091308593750 1.710599064826965 0.000000000000000
7.494528770446777 -19.240327835083008 -0.558730423450470 1.000000000000000
7.496455669403076 -21.215217590332031 2.396689414978027 0.000000000000000
7.498500347137451 -20.843856811523438 -0.131451845169067 1.000000000000000
7.514334678649902 -20.000043869018555 0.899197936058044 0.000000000000000
7.518949508666992 -19.105564117431641 0.706224977970123 1.000000000000000
7.535183429718018 -20.344051361083984 1.833193659782410 1.000000000000000
7.537242412567139 -24.345893859863281 1.465046525001526 0.000000000000000
7.540094375610352 -20.439413070678711 0.665617525577545 0.000000000000000
7.540427684783936 -20.019594192504883 2.146576166152954 1.000000000000000
7.545194625854492 -19.172252655029297 2.340189933776855 1.000000000000000
7.546896457672119 -19.239612579345703 1.964510083198547 1.000000000000000
7.551787853240967 -20.841123580932617 0.464335352182388 0.000000000000000
7.563283443450928 -20.350093841552734 1.792526841163635 1.000000000000000
7.572084426879883 -18.029127120971680 0.823003292083740 0.000000000000000
7.589114665985107 -18.011537551879883 0.860192298889160 1.000000000000000
7.590751647949219 -18.960952758789062 1.941420555114746 1.000000000000000
7.595915317535400 -15.795838356018066 1.990786671638489 0.000000000000000
7.596105575561523 -20.801193237304688 0.378805965185165 0.000000000000000
7.606571197509766 -20.843402862548828 -0.003872536821291 0.000000000000000
7.609241008758545 -33.936050415039062 2.066234111785889 0.000000000000000
7.618623256683350 -22.316978454589844 2.366225719451904 0.000000000000000
7.622393608093262 -20.047111511230469 2.038699626922607 1.000000000000000
7.623089313507080 -19.285186767578125 2.538855791091919 1.000000000000000
7.632352352142334 -21.288227081298828 -1.220829963684082 0.000000000000000
7.644869804382324 -25.002117156982422 2.370160341262817 0.000000000000000
7.648664951324463 -21.199693679809570 -0.350109457969666 0.000000000000000
7.655447483062744 -6.072202205657959 -1.434530496597290 1.000000000000000
7.661083698272705 -19.866548538208008 -0.698905527591705 1.000000000000000
7.661094188690186 -21.208633422851562 -0.307003736495972 1.000000000000000
7.671763420104980 -19.739126205444336 0.321592479944229 0.000000000000000
7.675206661224365 -20.074144363403320 0.161294147372246 0.000000000000000
7.677492141723633 -6.133470058441162 -1.442664742469788 0.000000000000000
7.696369171142578 -20.074853897094727 -0.127582818269730 1.000000000000000
7.703071117401123 -21.335327148437500 -1.486744046211243 1.000000000000000
7.708361148834229 -21.589139938354492 -0.004000992979854 0.000000000000000
7.711393356323242 -20.819797515869141 -0.515465378761292 0.000000000000000
7.713701725006104 -20.832725524902344 -0.217132270336151 1.000000000000000
7.715013027191162 -20.948471069335938 -0.732761621475220 0.000000000000000
7.725925922393799 -17.801536560058594 0.928732216358185 1.000000000000000
7.730164051055908 -19.749404907226562 3.143125057220459 0.000000000000000
7.733948230743408 -19.452337265014648 2.377658367156982 1.000000000000000
7.739763259887695 -20.242990493774414 0.828772425651550 0.000000000000000
7.769091129302979 -19.499086380004883 1.125746607780457 1.000000000000000
7.772784709930420 -20.470603942871094 0.921568572521210 0.000000000000000
7.773057460784912 -19.708843231201172 -0.491883218288422 0.000000000000000
7.797670841217041 -20.182960510253906 1.160450935363770 0.000000000000000
7.800390720367432 -20.836484909057617 1.880008578300476 0.000000000000000
7.820199489593506 -20.098184585571289 2.297127485275269 1.000000000000000
7.827872753143311 -23.257366180419922 2.224621057510376 0.000000000000000
7.838089942932129 -19.118833541870117 2.346961498260498 0.000000000000000
7.845542907714844 -21.484252929687500 0.742755651473999 0.000000000000000
7.849537372589111 -17.603881835937500 -1.263326883316040 0.000000000000000
7.853838920593262 -20.558557510375977 0.122915230691433 1.000000000000000
7.855823993682861 -20.212705612182617 -0.670133352279663 0.000000000000000
7.863527297973633 -17.788625717163086 0.855971336364746 1.000000000000000
7.864595890045166 -19.957267761230469 -0.209665179252625 1.000000000000000
7.866623878479004 -20.151897430419922 1.160236716270447 0.000000000000000
7.871467113494873 -19.711988449096680 2.598645210266113 1.000000000000000
7.873998641967773 -19.066909790039062 -1.272552609443665 1.000000000000000
7.874904155731201 -20.010040283203125 0.078816108405590 0.000000000000000
7.877851009368896 -5.321282386779785 -0.843429684638977 1.000000000000000
7.878040790557861 -19.922035217285156 -0.456232309341431 1.000000000000000
7.887147903442383 -20.448518753051758 1.767239212989807 1.000000000000000
7.887885093688965 -6.258812904357910 -1.088545322418213 1.000000000000000
7.903614521026611 -10.560751914978027 -0.179584652185440 0.000000000000000
7.910568237304688 -18.897850036621094 -1.421792387962341 1.000000000000000
7.917325019836426 -19.037006378173828 0.867744565010071 1.000000000000000
7.919472694396973 -19.010349273681641 1.794495105743408 1.000000000000000
7.928819179534912 -18.924755096435547 1.021475911140442 1.000000000000000
7.936372756958008 -6.162961483001709 -1.475201606750488 1.000000000000000
7.944374561309814 -19.308921813964844 -0.163989454507828 1.000000000000000
7.958854675292969 -19.151943206787109 1.472096323966980 1.000000000000000
7.969892501831055 -19.419092178344727 2.793334245681763 0.000000000000000
7.973920822143555 -20.426759719848633 0.838554978370667 0.000000000000000
7.982055187225342 -18.981138229370117 1.957318425178528 1.000000000000000
7.993744850158691 -23.478794097900391 2.248456239700317 0.000000000000000
7.999805927276611 -17.815341949462891 0.521618366241455 0.000000000000000
8.019531250000000 -19.201419830322266 -0.363219469785690 1.000000000000000
8.026546478271484 -21.138917922973633 -1.482035160064697 0.000000000000000
8.031338691711426 -20.731777191162109 -0.815249204635620 1.000000000000000
8.037878036499023 -19.509080886840820 -0.408825457096100 1.000000000000000
8.051603317260742 -18.932548522949219 -0.319603025913239 1.000000000000000
8.053378105163574 -21.321647644042969 0.433647006750107 0.000000000000000
8.068718910217285 -6.814251422882080 -0.753328442573547 1.000000000000000
8.070496559143066 -19.330093383789062 -0.607062101364136 1.000000000000000
8.072671890258789 -19.356197357177734 -1.293733119964600 1.000000000000000
8.074378967285156 -19.304313659667969 1.404504776000977 0.000000000000000
8.077424049377441 -19.559503555297852 2.123413085937500 1.000000000000000
8.090271949768066 -17.795265197753906 0.559682846069336 1.000000000000000
8.091164588928223 -20.942621231079102 -0.866415798664093 1.000000000000000
8.091737747192383 -19.212865829467773 2.091863393783569 1.000000000000000
8.100118637084961 -19.683555603027344 2.605936527252197 0.000000000000000
8.110415458679199 -14.775996208190918 2.881168603897095 0.000000000000000
8.113203048706055 -20.450925827026367 0.334103941917419 1.000000000000000
8.141552925109863 -18.844688415527344 -1.068652391433716 0.000000000000000
8.143985748291016 -19.407897949218750 -0.165308907628059 0.000000000000000
8.147900581359863 -19.422937393188477 2.578715562820435 1.000000000000000
8.149285316467285 -17.503309249877930 1.370425939559937 1.000000000000000
8.150238990783691 -19.032445907592773 -0.401154160499573 1.000000000000000
8.158260345458984 -24.113630294799805 2.891380548477173 0.000000000000000
8.158739089965820 -23.840581893920898 2.862037897109985 0.000000000000000
8.167419433593750 -19.035823822021484 -1.038452029228210 1.000000000000000
8.167834281921387 -17.610578536987305 0.667723655700684 1.000000000000000
8.185795783996582 -19.868099212646484 3.673068761825562 0.000000000000000
8.200563430786133 -18.460371017456055 0.074036702513695 0.000000000000000
8.208719253540039 -21.172113418579102 -0.439975559711456 0.000000000000000
8.211905479431152 -21.235292434692383 1.133448481559753 1.000000000000000
8.216491699218750 -17.324172973632812 -1.330680251121521 0.000000000000000
8.219054222106934 -17.091665267944336 -1.389387607574463 1.000000000000000
8.220344543457031 -20.887802124023438 1.809997558593750 0.000000000000000
8.228202819824219 -20.976495742797852 -0.393307447433472 0.000000000000000
8.230657577514648 -18.119993209838867 0.302217990159988 1.000000000000000
8.232308387756348 -12.728133201599121 2.017173767089844 0.000000000000000
8.234114646911621 -18.615528106689453 1.287780880928040 0.000000000000000
8.262723922729492 -20.231031417846680 3.238708972930908 0.000000000000000
8.265486717224121 -19.001157760620117 1.270984292030334 1.000000000000000
8.265969276428223 -18.963348388671875 -0.241913899779320 1.000000000000000
8.271728515625000 -20.850521087646484 2.250809907913208 1.000000000000000
8.273163795471191 -6.900527000427246 -1.164640426635742 1.000000000000000
8.274582862854004 -18.791181564331055 1.457369685173035 1.000000000000000
8.279427528381348 -17.464740753173828 -1.043376207351685 1.000000000000000
8.280249595642090 -20.616477966308594 2.523468732833862 1.000000000000000
8.286826133728027 -19.827785491943359 2.440857887268066 1.000000000000000
8.291030883789062 -5.030725479125977 -0.860397219657898 1.000000000000000
8.294177055358887 -20.147130966186523 -0.129291832447052 1.000000000000000
8.295432090759277 -19.817266464233398 1.815343379974365 1.000000000000000
8.300256729125977 -25.695024490356445 3.066985130310059 0.000000000000000
8.307178497314453 -7.288021087646484 -0.681715786457062 1.000000000000000
8.310140609741211 -6.326277256011963 -0.644280552864075 1.000000000000000
8.311291694641113 -5.446632385253906 -0.881606698036194 1.000000000000000
8.311942100524902 -18.524297714233398 -0.120485655963421 0.000000000000000
8.313798904418945 -20.063362121582031 0.788760304450989 1.000000000000000
8.316543579101562 -5.246942520141602 -0.872415959835052 1.000000000000000
8.324877738952637 -19.991359710693359 1.620679140090942 1.000000000000000
8.328417778015137 -19.612911224365234 -0.044627334922552 1.000000000000000
8.332847595214844 -20.036119461059570 -0.087109155952930 0.000000000000000
8.334422111511230 -20.039905548095703 -0.420526117086411 1.000000000000000
8.339868545532227 -19.539312362670898 2.827103376388550 0.000000000000000
8.359001159667969 -19.495489120483398 -0.044426277279854 1.000000000000000
8.361331939697266 -19.082929611206055 1.318087458610535 1.000000000000000
8.370928764343262 -19.253654479980469 -1.497549772262573 1.000000000000000
8.371634483337402 -16.885257720947266 3.221517086029053 0.000000000000000
8.372040748596191 -17.768138885498047 0.298270195722580 0.000000000000000
8.372146606445312 -19.686273574829102 2.146576166152954 1.000000000000000
8.375251770019531 -17.515005111694336 1.691714406013489 1.000000000000000
8.379071235656738 -18.205686569213867 0.766408145427704 1.000000000000000
8.381122589111328 -19.571605682373047 0.241544932126999 1.000000000000000
8.387748718261719 -18.744018554687500 -0.831956744194031 1.000000000000000
8.390496253967285 -17.072792053222656 0.800632655620575 0.000000000000000
8.394119262695312 -17.038080215454102 0.835921943187714 1.000000000000000
8.396862030029297 -20.008569717407227 -0.462108701467514 1.000000000000000
8.414286613464355 -19.764287948608398 0.367449313402176 1.000000000000000
8.422037124633789 -18.862134933471680 0.353356122970581 0.000000000000000
8.422968864440918 -20.268772125244141 -0.804842412471771 0.000000000000000
8.424814224243164 -19.564077377319336 2.607881069183350 0.000000000000000
8.440159797668457 -18.184429168701172 0.111968576908112 0.000000000000000
8.441762924194336 -17.967325210571289 -0.117803446948528 0.000000000000000
8.458241462707520 -18.049842834472656 -1.421846985816956 0.000000000000000
8.458462715148926 -20.482189178466797 -0.003867649938911 0.000000000000000
8.459009170532227 -18.577068328857422 0.388372391462326 0.000000000000000
