# This PCD file was generated using the MATLAB® pcwrite function
# from Computer Vision Toolbox®.
# .PCD v.7 - Point Cloud Data file format
VERSION .7
FIELDS x y z intensity
SIZE 8 8 8 8
TYPE F F F F
COUNT 1 1 1 1
WIDTH 635
HEIGHT 1
VIEWPOINT 0 0 0 1 0 0 0
POINTS 635
DATA ascii
12.119957923889160 -20.781604766845703 1.893375158309937 0.000000000000000
12.120848655700684 -20.006809234619141 1.434816360473633 0.000000000000000
12.125834465026855 -21.369634628295898 1.034094452857971 0.000000000000000
12.128143310546875 -14.034733772277832 -1.072777152061462 0.000000000000000
12.132735252380371 -23.840625762939453 2.425053596496582 0.000000000000000
12.136837005615234 -19.052484512329102 1.168069005012512 0.000000000000000
12.138551712036133 -9.945199012756348 2.682351112365723 0.000000000000000
12.139972686767578 -17.416490554809570 0.771048426628113 0.000000000000000
12.142145156860352 -24.599103927612305 1.312883496284485 0.000000000000000
12.142233848571777 -16.865386962890625 0.874640762805939 0.000000000000000
12.149315834045410 -21.116361618041992 1.682193994522095 0.000000000000000
12.156037330627441 -15.374551773071289 1.126676321029663 0.000000000000000
12.158714294433594 -23.348712921142578 1.361197948455811 0.000000000000000
12.164412498474121 -18.206705093383789 2.680794715881348 0.000000000000000
12.166380882263184 -19.651454925537109 3.950739383697510 0.000000000000000
12.167611122131348 -12.429059982299805 0.297530621290207 0.000000000000000
12.169233322143555 -19.215650558471680 1.263674497604370 0.000000000000000
12.171005249023438 -11.568436622619629 0.642138123512268 0.000000000000000
12.171058654785156 -11.656137466430664 0.353005439043045 0.000000000000000
12.175583839416504 -22.987913131713867 1.345086574554443 0.000000000000000
12.176683425903320 -11.186056137084961 1.109834790229797 0.000000000000000
12.178341865539551 -18.852249145507812 2.549200057983398 0.000000000000000
12.180483818054199 -11.724817276000977 1.532677412033081 0.000000000000000
12.181293487548828 -15.926135063171387 2.135710000991821 0.000000000000000
12.198281288146973 -11.682208061218262 1.133676290512085 0.000000000000000
12.202866554260254 -10.555924415588379 1.619017720222473 0.000000000000000
12.202966690063477 -12.527569770812988 0.904298126697540 0.000000000000000
12.204342842102051 -22.764812469482422 3.828044891357422 0.000000000000000
12.208065986633301 -11.685046195983887 2.248808383941650 0.000000000000000
12.215676307678223 -20.621885299682617 2.553023099899292 0.000000000000000
12.223338127136230 -10.396255493164062 0.829731762409210 0.000000000000000
12.224907875061035 -17.870079040527344 3.208802223205566 0.000000000000000
12.231854438781738 -19.912174224853516 3.994546175003052 0.000000000000000
12.233074188232422 -10.906167030334473 1.485729098320007 0.000000000000000
12.237974166870117 -12.268770217895508 0.496147543191910 0.000000000000000
12.238690376281738 -17.874824523925781 2.173732757568359 0.000000000000000
12.250740051269531 -11.467247962951660 0.964607536792755 0.000000000000000
12.260289192199707 -12.322932243347168 0.932302415370941 0.000000000000000
12.263799667358398 -17.415998458862305 1.931014418601990 0.000000000000000
12.263959884643555 -18.298259735107422 1.393601536750793 0.000000000000000
12.265079498291016 -21.173702239990234 0.841667294502258 0.000000000000000
12.266178131103516 -12.308211326599121 1.575291633605957 0.000000000000000
12.268834114074707 -11.499462127685547 0.126201480627060 0.000000000000000
12.276247024536133 -15.205428123474121 2.896249055862427 0.000000000000000
12.282569885253906 -20.763729095458984 0.968942046165466 0.000000000000000
12.283075332641602 -16.507852554321289 0.391492158174515 0.000000000000000
12.284959793090820 -23.897789001464844 3.982269048690796 0.000000000000000
12.285317420959473 -18.933639526367188 0.993327796459198 0.000000000000000
12.288471221923828 -12.292328834533691 1.099626898765564 0.000000000000000
12.293218612670898 26.406200408935547 -0.172848016023636 0.000000000000000
12.295382499694824 -25.285385131835938 1.832984209060669 0.000000000000000
12.296901702880859 -12.841470718383789 1.364950656890869 0.000000000000000
12.300427436828613 -9.952159881591797 1.092530488967896 0.000000000000000
12.305529594421387 -17.671092987060547 2.445823669433594 0.000000000000000
12.317269325256348 -17.897636413574219 1.207092046737671 0.000000000000000
12.319230079650879 -16.232341766357422 0.505138754844666 0.000000000000000
12.321153640747070 -14.969098091125488 0.406115412712097 0.000000000000000
12.343806266784668 -15.067231178283691 1.082166910171509 0.000000000000000
12.345000267028809 -17.305772781372070 1.058269739151001 0.000000000000000
12.350452423095703 -16.114046096801758 0.737366795539856 0.000000000000000
12.351749420166016 -23.257667541503906 1.919993042945862 0.000000000000000
12.352412223815918 -23.629993438720703 2.534558773040771 0.000000000000000
12.353394508361816 26.390867233276367 0.722320616245270 0.000000000000000
12.360933303833008 -24.703598022460938 1.162599325180054 0.000000000000000
12.363444328308105 -30.867052078247070 2.488484144210815 0.000000000000000
12.363921165466309 -15.305276870727539 1.783669352531433 0.000000000000000
12.364251136779785 -23.652641296386719 1.997414588928223 0.000000000000000
12.374190330505371 -10.692048072814941 0.279743105173111 0.000000000000000
12.375635147094727 -10.720867156982422 3.405704975128174 0.000000000000000
12.376597404479980 -18.415540695190430 1.190013766288757 0.000000000000000
12.377642631530762 -11.673892021179199 0.683364152908325 0.000000000000000
12.377824783325195 -11.877788543701172 1.350124239921570 0.000000000000000
12.379897117614746 -23.572229385375977 2.198363542556763 0.000000000000000
12.381541252136230 -11.032326698303223 1.369245767593384 0.000000000000000
12.383337974548340 -11.754634857177734 0.456042230129242 0.000000000000000
12.383431434631348 -35.939636230468750 2.185173511505127 0.000000000000000
12.385718345642090 -10.942937850952148 1.268810033798218 0.000000000000000
12.386446952819824 -24.874881744384766 1.329901695251465 0.000000000000000
12.391433715820312 -11.614374160766602 1.172713756561279 0.000000000000000
12.392333030700684 -14.901220321655273 -1.232922434806824 1.000000000000000
12.395350456237793 -10.662436485290527 1.554196357727051 0.000000000000000
12.397186279296875 -19.378231048583984 2.308318138122559 0.000000000000000
12.397490501403809 -18.221139907836914 1.054743051528931 0.000000000000000
12.398333549499512 -17.304403305053711 2.267470836639404 0.000000000000000
12.405978202819824 -24.891246795654297 0.956621348857880 0.000000000000000
12.406335830688477 -24.384565353393555 1.941932320594788 0.000000000000000
12.411532402038574 -19.001531600952148 0.955208659172058 0.000000000000000
12.412639617919922 -24.111999511718750 1.245714187622070 0.000000000000000
12.417593955993652 -27.607202529907227 2.265487670898438 0.000000000000000
12.427812576293945 -23.865470886230469 1.806059837341309 0.000000000000000
12.437457084655762 -11.821697235107422 0.920305848121643 0.000000000000000
12.447396278381348 -15.487525939941406 -0.308667927980423 1.000000000000000
12.450059890747070 -11.350945472717285 0.903596460819244 0.000000000000000
12.450850486755371 -17.177442550659180 1.178689837455750 0.000000000000000
12.466422080993652 -10.723571777343750 3.420367240905762 0.000000000000000
12.469738006591797 -21.457872390747070 1.044522881507874 0.000000000000000
12.474815368652344 -15.181144714355469 0.336115866899490 0.000000000000000
12.475738525390625 -15.815176963806152 0.421947896480560 0.000000000000000
12.482980728149414 -25.584835052490234 2.706027507781982 0.000000000000000
12.485019683837891 -11.863589286804199 0.857395410537720 0.000000000000000
12.485555648803711 -15.860042572021484 0.966019153594971 0.000000000000000
12.490586280822754 -11.878839492797852 1.156981945037842 0.000000000000000
12.491778373718262 -12.326740264892578 1.381193995475769 0.000000000000000
12.501094818115234 -12.174201011657715 0.801537334918976 0.000000000000000
12.507852554321289 -18.471244812011719 0.853076100349426 0.000000000000000
12.507870674133301 -11.183719635009766 1.288099408149719 0.000000000000000
12.508864402770996 -17.643383026123047 3.205283880233765 0.000000000000000
12.510305404663086 -13.524572372436523 0.562885940074921 0.000000000000000
12.513781547546387 -11.367115974426270 -1.303798556327820 1.000000000000000
12.514710426330566 -20.214084625244141 2.155282258987427 0.000000000000000
12.516244888305664 -12.248682975769043 1.344436645507812 0.000000000000000
12.517467498779297 -15.332624435424805 -0.649696052074432 1.000000000000000
12.519783020019531 -23.763975143432617 1.130473136901855 0.000000000000000
12.520030975341797 -12.112009048461914 0.532225251197815 0.000000000000000
12.525139808654785 -11.401797294616699 2.073666334152222 0.000000000000000
12.528952598571777 -15.399291038513184 -0.384649276733398 1.000000000000000
12.530656814575195 -17.340990066528320 1.725123763084412 0.000000000000000
12.532595634460449 -11.513012886047363 1.405122518539429 0.000000000000000
12.534590721130371 -22.991975784301758 1.959800720214844 0.000000000000000
12.534716606140137 -15.497879981994629 1.736854672431946 0.000000000000000
12.537899017333984 -17.224042892456055 0.405340850353241 0.000000000000000
12.539292335510254 -15.478658676147461 -0.883677959442139 0.000000000000000
12.542600631713867 -11.516553878784180 1.110095262527466 0.000000000000000
12.557312011718750 -20.729686737060547 0.973436772823334 0.000000000000000
12.557790756225586 -21.552207946777344 1.097795963287354 0.000000000000000
12.568128585815430 -17.255439758300781 0.447162568569183 0.000000000000000
12.570141792297363 -17.968036651611328 3.249850511550903 0.000000000000000
12.575535774230957 -12.020801544189453 1.577097415924072 0.000000000000000
12.583406448364258 -28.799537658691406 2.291426420211792 0.000000000000000
12.588274955749512 -24.255184173583984 0.834923028945923 0.000000000000000
12.599085807800293 -28.741029739379883 1.985339283943176 0.000000000000000
12.604116439819336 -10.943467140197754 0.895241737365723 0.000000000000000
12.604775428771973 -16.940200805664062 1.376559734344482 0.000000000000000
12.605220794677734 -11.112213134765625 1.908627152442932 0.000000000000000
12.606380462646484 -12.012867927551270 1.854818224906921 0.000000000000000
12.611644744873047 -18.959785461425781 2.425498962402344 0.000000000000000
12.614645957946777 -17.077615737915039 0.730288386344910 0.000000000000000
12.623774528503418 -22.973953247070312 1.557385563850403 0.000000000000000
12.627306938171387 -24.232044219970703 1.465505719184875 0.000000000000000
12.627963066101074 -17.135036468505859 0.977739751338959 0.000000000000000
12.635186195373535 -25.691673278808594 2.363923549652100 0.000000000000000
12.636375427246094 -17.945098876953125 1.261657118797302 0.000000000000000
12.637310028076172 -17.508535385131836 1.366073012351990 0.000000000000000
12.638299942016602 -11.539544105529785 1.943838357925415 0.000000000000000
12.649995803833008 -20.104969024658203 1.777701973915100 0.000000000000000
12.655238151550293 -15.960639953613281 0.348430335521698 0.000000000000000
12.662340164184570 -12.204836845397949 0.943227887153625 0.000000000000000
12.680150985717773 -10.818777084350586 1.672532200813293 0.000000000000000
12.683815956115723 -15.769285202026367 0.657197952270508 0.000000000000000
12.695884704589844 -16.360948562622070 0.672517836093903 0.000000000000000
12.703795433044434 -12.177394866943359 0.605296432971954 0.000000000000000
12.706385612487793 -23.973896026611328 1.455222964286804 0.000000000000000
12.711424827575684 -21.916015625000000 1.358822226524353 0.000000000000000
12.718571662902832 -19.001644134521484 1.992417454719543 0.000000000000000
12.719379425048828 -17.622238159179688 2.314921617507935 0.000000000000000
12.726224899291992 -16.400047302246094 2.211122989654541 0.000000000000000
12.726574897766113 -18.073192596435547 0.930314958095551 0.000000000000000
12.728468894958496 -11.725353240966797 0.262800872325897 0.000000000000000
12.742456436157227 -23.014516830444336 0.702646851539612 0.000000000000000
12.743427276611328 -23.262847900390625 1.014336705207825 0.000000000000000
12.746409416198730 -12.564403533935547 1.443175792694092 0.000000000000000
12.746850013732910 -10.912258148193359 0.641679584980011 0.000000000000000
12.747019767761230 -11.379549026489258 0.916449904441833 0.000000000000000
12.747915267944336 -17.465103149414062 1.201322793960571 0.000000000000000
12.752374649047852 -11.899689674377441 1.372720360755920 0.000000000000000
12.758015632629395 -15.636740684509277 0.345214873552322 0.000000000000000
12.760985374450684 -27.678174972534180 1.517297387123108 0.000000000000000
12.761025428771973 -23.206460952758789 2.307704210281372 0.000000000000000
12.764957427978516 -11.277999877929688 -1.313640952110291 1.000000000000000
12.777194023132324 -12.495761871337891 1.199575185775757 0.000000000000000
12.788387298583984 -9.498186111450195 1.315265893936157 0.000000000000000
12.791132926940918 -11.962194442749023 1.664723634719849 0.000000000000000
12.791732788085938 -24.848402023315430 2.804327011108398 0.000000000000000
12.791862487792969 -16.261980056762695 0.950391709804535 0.000000000000000
12.793521881103516 -23.405656814575195 0.866223752498627 0.000000000000000
12.794473648071289 -25.250957489013672 1.790871500968933 0.000000000000000
12.807908058166504 -17.141878128051758 3.171272516250610 0.000000000000000
12.812952995300293 -16.761070251464844 0.522981107234955 0.000000000000000
12.814538002014160 -22.122255325317383 1.666704177856445 0.000000000000000
12.818661689758301 -23.900691986083984 2.363261222839355 0.000000000000000
12.821630477905273 -16.225679397583008 1.148956418037415 0.000000000000000
12.827909469604492 -23.677288055419922 0.771009147167206 0.000000000000000
12.829637527465820 0.081507645547390 -1.088632583618164 0.000000000000000
12.834668159484863 -17.143350601196289 1.024913430213928 0.000000000000000
12.834987640380859 -17.019618988037109 0.692251920700073 0.000000000000000
12.842239379882812 -9.684704780578613 1.234824061393738 0.000000000000000
12.856595039367676 -19.737789154052734 1.444856882095337 0.000000000000000
12.857454299926758 -11.427024841308594 0.294246762990952 0.000000000000000
12.858136177062988 -24.630933761596680 1.543702125549316 0.000000000000000
12.866734504699707 -11.039428710937500 0.290005147457123 0.000000000000000
12.871303558349609 -16.558347702026367 1.286412477493286 0.000000000000000
12.875512123107910 -11.216598510742188 0.521720051765442 0.000000000000000
12.876463890075684 -15.914733886718750 0.822220206260681 0.000000000000000
12.881816864013672 -9.821846008300781 2.400737762451172 0.000000000000000
12.885375022888184 -19.764616012573242 1.538155794143677 0.000000000000000
12.888168334960938 -17.342546463012695 0.618638992309570 0.000000000000000
12.899380683898926 -11.121094703674316 0.127822533249855 0.000000000000000
12.899775505065918 -22.420713424682617 1.387313961982727 0.000000000000000
12.903807640075684 -16.491188049316406 0.720250487327576 0.000000000000000
12.911617279052734 -12.638693809509277 2.052180528640747 0.000000000000000
12.913524627685547 -17.408380508422852 0.620585143566132 0.000000000000000
12.919680595397949 -12.178296089172363 1.020619988441467 0.000000000000000
12.919779777526855 -22.031801223754883 1.911440014839172 0.000000000000000
12.924736976623535 -11.448521614074707 0.693477392196655 0.000000000000000
12.925134658813477 -10.747430801391602 1.193140029907227 0.000000000000000
12.927818298339844 -19.992542266845703 1.231068372726440 0.000000000000000
12.930637359619141 -25.061227798461914 2.273910045623779 0.000000000000000
12.931040763854980 -26.004953384399414 2.229603052139282 0.000000000000000
12.934906005859375 -23.824125289916992 1.662809967994690 0.000000000000000
12.939938545227051 -12.178638458251953 0.713703811168671 0.000000000000000
12.946525573730469 -10.412252426147461 1.339655518531799 0.000000000000000
12.953640937805176 -9.943989753723145 1.222151517868042 0.000000000000000
12.959944725036621 -16.326780319213867 -0.884608328342438 1.000000000000000
12.963706016540527 -22.200729370117188 2.072977781295776 0.000000000000000
12.966814041137695 -11.216767311096191 -1.322252869606018 0.000000000000000
12.967252731323242 -23.153745651245117 1.270051360130310 0.000000000000000
12.970674514770508 -17.838848114013672 1.395369410514832 0.000000000000000
12.973629951477051 -25.101545333862305 1.842091917991638 0.000000000000000
12.975182533264160 -12.023145675659180 1.392178416252136 0.000000000000000
12.976633071899414 -23.230373382568359 1.580870866775513 0.000000000000000
12.979869842529297 -16.678178787231445 1.052104353904724 0.000000000000000
12.980436325073242 -15.954208374023438 1.864564657211304 0.000000000000000
12.980794906616211 -21.297704696655273 1.818481564521790 0.000000000000000
12.989088058471680 -24.671468734741211 1.979032039642334 0.000000000000000
12.997844696044922 -24.242906570434570 1.634246587753296 0.000000000000000
13.008405685424805 -11.594952583312988 2.133455753326416 0.000000000000000
13.012273788452148 -16.306612014770508 -0.644682168960571 1.000000000000000
13.014346122741699 -11.865415573120117 0.402733862400055 0.000000000000000
13.015614509582520 -10.554513931274414 1.784913063049316 0.000000000000000
13.018467903137207 -11.786221504211426 2.336924552917480 0.000000000000000
13.018728256225586 -16.776990890502930 1.016308784484863 0.000000000000000
13.028286933898926 -25.468271255493164 2.306702136993408 0.000000000000000
13.028697967529297 -21.376298904418945 1.053605675697327 0.000000000000000
13.031497001647949 -25.170406341552734 2.569509506225586 0.000000000000000
13.034787178039551 -13.880150794982910 1.498568773269653 0.000000000000000
13.036425590515137 -22.053934097290039 1.522038936614990 0.000000000000000
13.047146797180176 -25.094339370727539 1.789356231689453 0.000000000000000
13.049802780151367 -12.021363258361816 1.780360221862793 0.000000000000000
13.057273864746094 -12.005936622619629 2.014712333679199 0.000000000000000
13.058452606201172 -17.980672836303711 1.363063335418701 0.000000000000000
13.059040069580078 -11.539043426513672 0.431984812021255 0.000000000000000
13.060304641723633 -11.975112915039062 1.606349825859070 0.000000000000000
13.060590744018555 -16.528079986572266 0.522188127040863 0.000000000000000
13.066777229309082 -10.572206497192383 1.420278787612915 0.000000000000000
13.077137947082520 -11.826055526733398 2.613015890121460 0.000000000000000
13.079526901245117 -24.438255310058594 1.967420697212219 0.000000000000000
13.079669952392578 -11.585759162902832 0.970777094364166 0.000000000000000
13.087434768676758 -25.063777923583984 1.190016031265259 0.000000000000000
13.088285446166992 -20.147260665893555 1.844428539276123 0.000000000000000
13.089982986450195 -24.211437225341797 1.635195374488831 0.000000000000000
13.092487335205078 -17.975358963012695 2.722598552703857 0.000000000000000
13.093257904052734 -11.026329040527344 3.560472726821899 0.000000000000000
13.094312667846680 -10.594485282897949 2.241421222686768 0.000000000000000
13.099045753479004 -24.540584564208984 2.243046760559082 0.000000000000000
13.099478721618652 -23.465675354003906 0.717812597751617 0.000000000000000
13.111373901367188 -19.040124893188477 1.328917980194092 0.000000000000000
13.111411094665527 -12.006818771362305 0.235835939645767 0.000000000000000
13.133646965026855 -11.685626983642578 1.763986349105835 0.000000000000000
13.133745193481445 -33.520259857177734 2.555352926254272 0.000000000000000
13.135901451110840 -16.034086227416992 1.471246600151062 0.000000000000000
13.136667251586914 -11.350873947143555 1.098364114761353 0.000000000000000
13.136723518371582 -11.059796333312988 2.544993162155151 0.000000000000000
13.141853332519531 -16.555944442749023 1.052303194999695 0.000000000000000
13.147579193115234 -15.322216987609863 -0.856794714927673 1.000000000000000
13.153214454650879 -16.249242782592773 -0.967600643634796 1.000000000000000
13.155074119567871 -11.103525161743164 1.454632282257080 0.000000000000000
13.158993721008301 -17.945287704467773 2.527531623840332 0.000000000000000
13.159601211547852 -24.942516326904297 2.457360982894897 0.000000000000000
13.160180091857910 -17.795351028442383 2.945295095443726 0.000000000000000
13.166448593139648 -9.807178497314453 1.647372245788574 0.000000000000000
13.167609214782715 -24.766752243041992 2.666283130645752 0.000000000000000
13.170610427856445 -21.779846191406250 1.855712056159973 0.000000000000000
13.182290077209473 -11.696379661560059 -1.257065296173096 1.000000000000000
13.184226989746094 -12.189934730529785 1.517276644706726 0.000000000000000
13.197183609008789 -9.282706260681152 1.207523822784424 0.000000000000000
13.199067115783691 -25.713504791259766 2.107309579849243 0.000000000000000
13.200463294982910 -35.472229003906250 3.431189060211182 0.000000000000000
13.200984954833984 -15.276229858398438 -0.856794714927673 1.000000000000000
13.205769538879395 -23.579629898071289 0.877648711204529 0.000000000000000
13.210348129272461 -22.018774032592773 1.476065278053284 0.000000000000000
13.230131149291992 -15.649653434753418 1.612805366516113 0.000000000000000
13.233290672302246 -14.993333816528320 -0.848654150962830 1.000000000000000
13.236954689025879 -10.645830154418945 1.929392814636230 0.000000000000000
13.238415718078613 -16.161518096923828 -0.725892901420593 1.000000000000000
13.239048004150391 -16.272068023681641 0.882882535457611 0.000000000000000
13.242052078247070 -33.425155639648438 2.066720962524414 0.000000000000000
13.245013236999512 -11.376832962036133 1.752005457878113 0.000000000000000
13.245732307434082 -19.742233276367188 1.825139284133911 0.000000000000000
13.247932434082031 -16.957799911499023 0.947073340415955 0.000000000000000
13.248970031738281 -31.331134796142578 3.863751173019409 0.000000000000000
13.249017715454102 -16.354753494262695 1.007321596145630 0.000000000000000
13.254565238952637 -22.303716659545898 1.691425085067749 0.000000000000000
13.257603645324707 -17.173147201538086 1.456206083297729 0.000000000000000
13.258375167846680 -11.232387542724609 1.743618845939636 0.000000000000000
13.269837379455566 -14.483515739440918 -1.325371861457825 0.000000000000000
13.270239830017090 -17.349851608276367 1.045373558998108 0.000000000000000
13.270524024963379 -24.654275894165039 0.532718479633331 0.000000000000000
13.283562660217285 -23.991823196411133 1.154189348220825 0.000000000000000
13.293433189392090 -30.678171157836914 2.502216100692749 0.000000000000000
13.297356605529785 -10.582501411437988 2.518604755401611 0.000000000000000
13.298786163330078 -10.994674682617188 2.112553834915161 0.000000000000000
13.304269790649414 -14.182975769042969 1.951287627220154 0.000000000000000
13.310140609741211 -10.291699409484863 1.259168267250061 0.000000000000000
13.322312355041504 -24.015302658081055 1.261499047279358 0.000000000000000
13.323212623596191 -10.936801910400391 1.156981945037842 0.000000000000000
13.328399658203125 -20.319906234741211 1.959491252899170 0.000000000000000
13.331064224243164 -34.158931732177734 2.815019369125366 0.000000000000000
13.331665039062500 -11.506772994995117 2.000266551971436 0.000000000000000
13.344021797180176 -11.343003273010254 2.330592870712280 0.000000000000000
13.351411819458008 -17.082263946533203 1.706328511238098 0.000000000000000
13.352933883666992 -9.462802886962891 1.426082015037537 0.000000000000000
13.355982780456543 -21.586393356323242 1.801746129989624 0.000000000000000
13.358710289001465 -33.395778656005859 3.260731220245361 0.000000000000000
13.359043121337891 -24.207853317260742 1.802538633346558 0.000000000000000
13.382865905761719 -18.415878295898438 0.564316093921661 0.000000000000000
13.390709877014160 -16.869451522827148 1.736697554588318 0.000000000000000
13.392971038818359 -16.170923233032227 -1.214351415634155 1.000000000000000
13.405364990234375 -23.443126678466797 2.448166608810425 0.000000000000000
13.408390045166016 -26.390554428100586 1.587613344192505 0.000000000000000
13.411015510559082 -15.614881515502930 0.431162565946579 0.000000000000000
13.412028312683105 -30.098451614379883 3.132239341735840 0.000000000000000
13.415291786193848 -19.775619506835938 1.373681902885437 0.000000000000000
13.434873580932617 -11.727422714233398 3.048310041427612 0.000000000000000
13.438420295715332 -14.226141929626465 1.963667869567871 0.000000000000000
13.446849822998047 -25.107719421386719 0.760746777057648 0.000000000000000
13.453969955444336 -13.208260536193848 -0.618858098983765 0.000000000000000
13.455575942993164 -34.174709320068359 3.912149429321289 0.000000000000000
13.455805778503418 -14.259993553161621 0.260082751512527 0.000000000000000
13.463040351867676 -10.279874801635742 2.510395288467407 0.000000000000000
13.467196464538574 -9.939035415649414 1.349621772766113 0.000000000000000
13.472062110900879 -33.324424743652344 2.620684385299683 0.000000000000000
13.484288215637207 -22.123790740966797 1.489379763603210 0.000000000000000
13.486618041992188 -17.789875030517578 3.308490991592407 0.000000000000000
13.504195213317871 -15.390996932983398 2.724740982055664 0.000000000000000
13.508189201354980 -14.632534027099609 0.838141322135925 0.000000000000000
13.513997077941895 -10.880686759948730 1.848039388656616 0.000000000000000
13.517436027526855 -14.629225730895996 1.893348693847656 0.000000000000000
13.522599220275879 -14.007465362548828 0.931791663169861 0.000000000000000
13.522941589355469 -12.212057113647461 2.700390100479126 0.000000000000000
13.523978233337402 -17.211856842041016 1.300470232963562 0.000000000000000
13.524283409118652 -9.587069511413574 1.240659832954407 0.000000000000000
13.538676261901855 -17.537233352661133 0.464084059000015 0.000000000000000
13.543986320495605 -17.185398101806641 1.764345884323120 0.000000000000000
13.552673339843750 -19.234937667846680 2.236664772033691 0.000000000000000
13.555619239807129 -14.339177131652832 2.101816654205322 0.000000000000000
13.556404113769531 -15.467915534973145 2.336127281188965 0.000000000000000
13.558665275573730 -14.103326797485352 0.973942279815674 0.000000000000000
13.561837196350098 -22.368574142456055 1.151261329650879 0.000000000000000
13.568921089172363 -14.550378799438477 2.119187116622925 0.000000000000000
13.573888778686523 -11.508235931396484 1.691598415374756 0.000000000000000
13.574452400207520 -16.056941986083984 1.330210089683533 0.000000000000000
13.580036163330078 -11.927834510803223 2.678693294525146 0.000000000000000
13.603348731994629 -8.430488586425781 2.735593557357788 0.000000000000000
13.606410980224609 -15.981261253356934 0.359034419059753 0.000000000000000
13.619558334350586 -13.830846786499023 0.593057930469513 0.000000000000000
13.622841835021973 -31.273653030395508 2.816498756408691 0.000000000000000
13.636671066284180 -10.106084823608398 2.078041076660156 0.000000000000000
13.645675659179688 -17.963838577270508 1.427191495895386 0.000000000000000
13.646321296691895 -11.996183395385742 1.647158622741699 0.000000000000000
13.659833908081055 -34.148567199707031 2.114239692687988 0.000000000000000
13.664944648742676 -16.151971817016602 -0.897836744785309 1.000000000000000
13.667769432067871 -19.774139404296875 1.938272714614868 0.000000000000000
13.670562744140625 -18.681190490722656 0.573832094669342 0.000000000000000
13.673711776733398 -18.554025650024414 2.312711238861084 0.000000000000000
13.692823410034180 -31.904685974121094 2.598340511322021 0.000000000000000
13.693793296813965 -19.412904739379883 2.383797883987427 0.000000000000000
13.694557189941406 -18.922462463378906 3.108336448669434 0.000000000000000
13.696223258972168 -11.534109115600586 1.340067863464355 0.000000000000000
13.703511238098145 -27.001749038696289 1.099734783172607 0.000000000000000
13.704170227050781 -22.294988632202148 2.487622499465942 0.000000000000000
13.705500602722168 -16.148395538330078 0.565727353096008 0.000000000000000
13.714366912841797 -16.786144256591797 1.664088606834412 0.000000000000000
13.719792366027832 -17.513860702514648 2.960596799850464 0.000000000000000
13.722478866577148 -21.756383895874023 2.739860534667969 0.000000000000000
13.736793518066406 -16.122425079345703 -0.898854315280914 1.000000000000000
13.742292404174805 -11.110032081604004 1.254312157630920 0.000000000000000
13.750367164611816 -20.671689987182617 1.953945517539978 0.000000000000000
13.752593040466309 -13.431842803955078 1.364478588104248 0.000000000000000
13.763104438781738 -14.110472679138184 0.185778483748436 0.000000000000000
13.770255088806152 -28.255733489990234 2.291717290878296 0.000000000000000
13.773184776306152 -14.351511001586914 0.990250825881958 0.000000000000000
13.783193588256836 -17.062191009521484 3.749225854873657 0.000000000000000
13.785222053527832 -16.738281250000000 0.829230904579163 0.000000000000000
13.789612770080566 -19.841390609741211 2.424532651901245 0.000000000000000
13.794028282165527 -22.573431015014648 1.164275884628296 0.000000000000000
13.795507431030273 -15.213790893554688 0.666935145854950 0.000000000000000
13.814631462097168 -14.597329139709473 -0.852894067764282 0.000000000000000
13.819746017456055 -16.970066070556641 2.080336809158325 0.000000000000000
13.822516441345215 -18.381782531738281 1.676830887794495 0.000000000000000
13.828269004821777 -17.525972366333008 1.886407732963562 0.000000000000000
13.829824447631836 -15.882501602172852 1.088958382606506 0.000000000000000
13.833561897277832 -10.721130371093750 2.329009771347046 0.000000000000000
13.834742546081543 -15.028313636779785 1.016901612281799 0.000000000000000
13.834767341613770 -28.229047775268555 1.928271770477295 0.000000000000000
13.846992492675781 -8.448261260986328 2.772661447525024 0.000000000000000
13.851323127746582 -11.076772689819336 1.889135241508484 0.000000000000000
13.854948043823242 -17.599542617797852 1.762819051742554 0.000000000000000
13.855504035949707 -16.595701217651367 0.452858895063400 0.000000000000000
13.863215446472168 -24.048608779907227 2.023831605911255 0.000000000000000
13.869010925292969 -23.972524642944336 2.949999809265137 0.000000000000000
13.871550559997559 -10.312444686889648 1.963249564170837 0.000000000000000
13.889410972595215 -19.567434310913086 2.280951499938965 0.000000000000000
13.890333175659180 -14.489261627197266 1.269849419593811 0.000000000000000
13.898377418518066 -10.977065086364746 1.325440168380737 0.000000000000000
13.908144950866699 -15.091126441955566 0.469307512044907 0.000000000000000
13.909873008728027 -12.341949462890625 0.389529019594193 0.000000000000000
13.912125587463379 -11.362229347229004 1.913284420967102 0.000000000000000
13.913426399230957 -16.476562500000000 0.990587890148163 0.000000000000000
13.926340103149414 -32.830707550048828 2.531280755996704 0.000000000000000
13.938521385192871 -22.676248550415039 1.992041110992432 0.000000000000000
13.939416885375977 -14.889733314514160 1.849035739898682 0.000000000000000
13.949471473693848 -16.028940200805664 -0.901737511157990 1.000000000000000
13.964824676513672 -22.312847137451172 2.071634054183960 0.000000000000000
13.967580795288086 -11.937029838562012 3.140642404556274 0.000000000000000
13.979071617126465 -19.571910858154297 1.707155942916870 0.000000000000000
13.983278274536133 -16.540534973144531 1.036577582359314 0.000000000000000
13.994809150695801 -20.415199279785156 1.947982549667358 0.000000000000000
14.002194404602051 -10.399703979492188 2.135400056838989 0.000000000000000
14.005886077880859 -12.335688591003418 0.104238905012608 0.000000000000000
14.007445335388184 -15.870452880859375 2.404292345046997 0.000000000000000
14.008201599121094 -17.047189712524414 0.716530084609985 0.000000000000000
14.016366004943848 -13.892639160156250 0.451292395591736 0.000000000000000
14.018868446350098 -15.489971160888672 3.096212863922119 0.000000000000000
14.046357154846191 -16.752260208129883 0.667938411235809 0.000000000000000
14.049216270446777 -17.518735885620117 2.749333620071411 0.000000000000000
14.077435493469238 -18.596158981323242 2.032349109649658 0.000000000000000
14.078555107116699 -27.266189575195312 1.882232189178467 0.000000000000000
14.081061363220215 -9.405821800231934 3.522188186645508 0.000000000000000
14.085068702697754 -14.692393302917480 0.660962939262390 0.000000000000000
14.093566894531250 -25.454795837402344 1.672567963600159 0.000000000000000
14.093739509582520 -16.176460266113281 2.855068445205688 0.000000000000000
14.095187187194824 -13.218678474426270 0.404775112867355 0.000000000000000
14.098592758178711 -24.313516616821289 1.020757198333740 0.000000000000000
14.118980407714844 -20.714731216430664 3.069181680679321 0.000000000000000
14.121132850646973 -8.551387786865234 2.821860313415527 0.000000000000000
14.126832962036133 -14.446511268615723 0.306833833456039 0.000000000000000
14.133595466613770 -14.016660690307617 1.029263973236084 0.000000000000000
14.139721870422363 -17.846927642822266 0.695667386054993 0.000000000000000
14.141381263732910 -16.364459991455078 0.411504298448563 0.000000000000000
14.143495559692383 -17.491960525512695 2.138250112533569 0.000000000000000
14.146939277648926 -15.217525482177734 0.874472558498383 0.000000000000000
14.150758743286133 -10.748018264770508 2.018323659896851 0.000000000000000
14.156860351562500 -21.029552459716797 3.103694200515747 0.000000000000000
14.159893035888672 -17.449861526489258 2.751277923583984 0.000000000000000
14.169095993041992 -15.374273300170898 2.782253980636597 0.000000000000000
14.180970191955566 -24.543357849121094 2.844263315200806 0.000000000000000
14.185586929321289 -15.959650039672852 -0.906146943569183 1.000000000000000
14.201678276062012 -23.248741149902344 2.733639717102051 0.000000000000000
14.202433586120605 -13.113891601562500 0.813584089279175 0.000000000000000
14.206640243530273 -33.439533233642578 3.453601360321045 0.000000000000000
14.214898109436035 -15.618683815002441 1.499000668525696 0.000000000000000
14.233682632446289 -14.555779457092285 0.622008442878723 0.000000000000000
14.238711357116699 -28.706335067749023 1.348628759384155 0.000000000000000
14.256481170654297 -15.402068138122559 0.600894868373871 0.000000000000000
14.257386207580566 -17.806312561035156 3.035521984100342 0.000000000000000
14.261414527893066 -14.288324356079102 0.810822725296021 0.000000000000000
14.263186454772949 -16.871631622314453 0.377916574478149 0.000000000000000
14.267438888549805 -13.945392608642578 0.456230551004410 0.000000000000000
14.267866134643555 -15.939811706542969 -0.907842874526978 1.000000000000000
14.269029617309570 -15.030113220214844 0.553551971912384 0.000000000000000
14.272129058837891 -27.967178344726562 0.778325974941254 0.000000000000000
14.278705596923828 -8.511140823364258 2.841404914855957 0.000000000000000
14.285536766052246 -20.684110641479492 2.677581310272217 0.000000000000000
14.289931297302246 -25.268684387207031 1.780602455139160 0.000000000000000
14.292170524597168 -15.219081878662109 2.223832845687866 0.000000000000000
14.315687179565430 -22.646930694580078 1.385364890098572 0.000000000000000
14.325060844421387 -17.065286636352539 0.381132006645203 0.000000000000000
14.325392723083496 -10.727683067321777 2.032769203186035 0.000000000000000
14.338976860046387 -17.574430465698242 1.785101532936096 0.000000000000000
14.346089363098145 -19.078052520751953 2.163949489593506 0.000000000000000
14.358249664306641 -10.930532455444336 1.810711860656738 0.000000000000000
14.385022163391113 -15.643044471740723 1.017073631286621 0.000000000000000
14.388269424438477 -23.466646194458008 1.900699973106384 0.000000000000000
14.388616561889648 -11.227876663208008 1.542199730873108 0.000000000000000
14.401826858520508 -15.842948913574219 1.395815968513489 0.000000000000000
14.418010711669922 -14.798435211181641 0.790100395679474 0.000000000000000
14.419740676879883 -18.582450866699219 1.488057374954224 0.000000000000000
14.422857284545898 -11.917215347290039 1.580931663513184 0.000000000000000
14.425646781921387 -16.416902542114258 0.877762615680695 0.000000000000000
14.431646347045898 -18.683149337768555 3.141577959060669 0.000000000000000
14.435599327087402 -24.140203475952148 1.725257158279419 0.000000000000000
14.436865806579590 -11.070191383361816 1.825488209724426 0.000000000000000
14.444028854370117 -15.835425376892090 0.984530925750732 0.000000000000000
14.452199935913086 -10.632515907287598 2.196647405624390 0.000000000000000
14.456328392028809 -10.747182846069336 1.452498912811279 0.000000000000000
14.457678794860840 -18.138074874877930 1.735908746719360 0.000000000000000
14.459461212158203 -34.034622192382812 2.196945428848267 0.000000000000000
14.460927009582520 -15.871191024780273 2.040970802307129 0.000000000000000
14.462171554565430 -20.099576950073242 1.375729918479919 0.000000000000000
14.462664604187012 -20.014667510986328 2.804706811904907 0.000000000000000
14.465097427368164 -16.151077270507812 0.787453711032867 0.000000000000000
14.475098609924316 -30.972768783569336 3.430528163909912 0.000000000000000
14.490393638610840 -11.821445465087891 -1.081553339958191 1.000000000000000
14.492779731750488 -17.988063812255859 1.550500512123108 0.000000000000000
14.494587898254395 -11.263020515441895 1.955227494239807 0.000000000000000
14.499387741088867 -13.388086318969727 1.789086580276489 0.000000000000000
14.512071609497070 -29.777894973754883 0.375817209482193 0.000000000000000
14.524269104003906 -14.459519386291504 1.533808946609497 0.000000000000000
14.526166915893555 -11.193926811218262 -1.343503355979919 0.000000000000000
14.528568267822266 -11.818839073181152 -0.650747895240784 1.000000000000000
14.538513183593750 -30.098489761352539 0.379220545291901 0.000000000000000
14.539509773254395 -15.079259872436523 0.841322898864746 0.000000000000000
14.549971580505371 -15.177342414855957 2.239508628845215 0.000000000000000
14.550257682800293 -16.505189895629883 0.629972279071808 0.000000000000000
14.552792549133301 -14.643496513366699 1.664683461189270 0.000000000000000
14.555580139160156 -11.533302307128906 -1.038280010223389 1.000000000000000
14.561820983886719 -15.050793647766113 1.446053028106689 0.000000000000000
14.570831298828125 -13.752961158752441 1.383504629135132 0.000000000000000
14.571834564208984 -11.854036331176758 -0.363960027694702 1.000000000000000
14.580843925476074 -16.325555801391602 1.005454897880554 0.000000000000000
14.588787078857422 -18.378774642944336 2.665216445922852 0.000000000000000
14.590091705322266 -13.740355491638184 1.905082821846008 0.000000000000000
14.592045783996582 -16.951646804809570 1.285760760307312 0.000000000000000
14.598146438598633 -15.933313369750977 1.533834815025330 0.000000000000000
14.601233482360840 -13.109220504760742 0.825862705707550 0.000000000000000
14.602982521057129 -14.163141250610352 0.191734850406647 0.000000000000000
14.604608535766602 -13.416459083557129 0.110762208700180 0.000000000000000
14.608671188354492 -11.819738388061523 0.141031071543694 1.000000000000000
14.611772537231445 -12.045871734619141 -1.497019410133362 1.000000000000000
14.612617492675781 -14.855377197265625 1.559481978416443 0.000000000000000
14.612727165222168 -15.186994552612305 1.170923709869385 0.000000000000000
14.620028495788574 -16.158748626708984 1.630828857421875 0.000000000000000
14.620082855224609 -10.931649208068848 2.429261684417725 0.000000000000000
14.623602867126465 -11.654660224914551 2.771345138549805 0.000000000000000
14.624924659729004 -14.683235168457031 1.151397109031677 0.000000000000000
14.631959915161133 -12.011130332946777 -1.058375835418701 1.000000000000000
14.651041984558105 -11.856558799743652 0.684521436691284 1.000000000000000
14.651873588562012 -16.271982192993164 0.711077213287354 0.000000000000000
14.651923179626465 -17.719944000244141 0.569966197013855 0.000000000000000
14.664209365844727 -16.915695190429688 1.286908626556396 0.000000000000000
14.667974472045898 -11.743280410766602 -0.291892498731613 1.000000000000000
14.669401168823242 -14.644842147827148 1.071814298629761 0.000000000000000
14.671073913574219 -11.422763824462891 1.620184659957886 0.000000000000000
14.672408103942871 -16.267930984497070 0.458890318870544 0.000000000000000
14.675228118896484 -11.749088287353516 -0.580930471420288 0.000000000000000
14.686500549316406 -15.731720924377441 2.444469451904297 0.000000000000000
14.693610191345215 -18.059864044189453 1.697482228279114 0.000000000000000
14.693823814392090 -30.793790817260742 2.092838525772095 0.000000000000000
14.701326370239258 -21.153223037719727 1.977616906166077 0.000000000000000
14.707775115966797 -14.744785308837891 1.979650735855103 0.000000000000000
14.712447166442871 -13.675479888916016 1.464500188827515 0.000000000000000
14.713091850280762 -15.364663124084473 2.134595155715942 0.000000000000000
14.722122192382812 -28.366697311401367 3.206885099411011 0.000000000000000
14.725174903869629 -17.020803451538086 1.554066181182861 0.000000000000000
14.726142883300781 -17.259168624877930 1.479086160659790 0.000000000000000
14.733057022094727 -7.504276275634766 3.439102172851562 0.000000000000000
14.746123313903809 -18.633018493652344 1.411728978157043 0.000000000000000
14.748826026916504 -11.203488349914551 1.421900033950806 0.000000000000000
14.751611709594727 -16.118879318237305 1.846328735351562 0.000000000000000
14.753202438354492 -27.639585494995117 3.558587551116943 0.000000000000000
14.762628555297852 -13.433898925781250 1.648032069206238 0.000000000000000
14.777352333068848 -14.180380821228027 0.980169117450714 0.000000000000000
14.787302970886230 -13.183341026306152 0.224755197763443 0.000000000000000
14.794553756713867 -14.449501991271973 1.148956418037415 0.000000000000000
14.796303749084473 -14.992836952209473 2.392555236816406 0.000000000000000
14.804894447326660 -17.011882781982422 0.429081499576569 0.000000000000000
14.805288314819336 -17.172681808471680 0.910670697689056 0.000000000000000
14.806156158447266 -14.562164306640625 0.834099173545837 0.000000000000000
14.807888031005859 -16.198528289794922 2.492771863937378 0.000000000000000
14.823693275451660 -27.452480316162109 3.819707155227661 0.000000000000000
14.825404167175293 -17.507513046264648 1.186245918273926 0.000000000000000
14.831901550292969 -9.832665443420410 3.701392650604248 0.000000000000000
14.833725929260254 -15.225118637084961 2.828686237335205 0.000000000000000
14.839429855346680 -17.248775482177734 0.913881242275238 0.000000000000000
14.841482162475586 -14.570432662963867 1.977001190185547 0.000000000000000
14.842061042785645 -27.573913574218750 3.556781768798828 0.000000000000000
14.845396995544434 -19.160655975341797 2.304041147232056 0.000000000000000
14.847167015075684 -14.101259231567383 1.137639880180359 0.000000000000000
14.847477912902832 -15.379848480224609 1.352434992790222 0.000000000000000
14.850499153137207 -8.922373771667480 2.961369514465332 0.000000000000000
14.857176780700684 -17.269403457641602 1.265671610832214 0.000000000000000
14.866175651550293 -13.160807609558105 0.225254371762276 0.000000000000000
14.875652313232422 -11.020266532897949 1.528552055358887 0.000000000000000
14.881258964538574 -20.443252563476562 2.038899660110474 0.000000000000000
14.883359909057617 -34.312873840332031 2.294138669967651 0.000000000000000
14.889560699462891 -15.176078796386719 2.829214096069336 0.000000000000000
14.908143997192383 -10.709036827087402 1.841862082481384 0.000000000000000
14.908970832824707 -11.598378181457520 1.895376801490784 0.000000000000000
14.909193992614746 -16.730182647705078 1.245035529136658 0.000000000000000
14.916408538818359 -11.711941719055176 3.241735935211182 0.000000000000000
14.931538581848145 -14.920075416564941 2.397521018981934 0.000000000000000
14.931673049926758 -16.601358413696289 1.025644779205322 0.000000000000000
14.933692932128906 -15.132051467895508 0.404503852128983 0.000000000000000
14.939887046813965 -16.917381286621094 1.167036175727844 0.000000000000000
14.941511154174805 -20.250627517700195 1.980621576309204 0.000000000000000
14.941675186157227 -16.221651077270508 1.480315566062927 0.000000000000000
14.942887306213379 -11.091903686523438 1.572511672973633 0.000000000000000
14.947112083435059 -16.028255462646484 1.724844932556152 0.000000000000000
14.947373390197754 -33.271835327148438 2.659369468688965 0.000000000000000
14.947918891906738 -15.644292831420898 1.535817265510559 0.000000000000000
14.949353218078613 -14.676334381103516 1.567840576171875 0.000000000000000
14.957273483276367 -15.172352790832520 1.347889065742493 0.000000000000000
14.980443954467773 -13.911918640136719 1.214594602584839 0.000000000000000
14.995093345642090 -16.500207901000977 1.195797801017761 0.000000000000000
15.021582603454590 -14.060882568359375 1.865287065505981 0.000000000000000
15.024253845214844 -12.158585548400879 2.366293430328369 0.000000000000000
15.027530670166016 -11.617109298706055 -1.318218111991882 1.000000000000000
15.028936386108398 -11.207119941711426 1.782064318656921 0.000000000000000
15.046150207519531 -15.189688682556152 1.600080966949463 0.000000000000000
15.066019058227539 -18.218807220458984 0.359005331993103 1.000000000000000
15.066127777099609 -21.316495895385742 2.104805469512939 0.000000000000000
15.068741798400879 -16.132131576538086 0.462408661842346 0.000000000000000
15.071063995361328 -14.822707176208496 1.500416755676270 0.000000000000000
15.074305534362793 -16.374818801879883 2.527983188629150 0.000000000000000
15.076373100280762 -11.691062927246094 -1.066637396812439 1.000000000000000
15.080551147460938 -18.005464553833008 1.395360469818115 0.000000000000000
15.081360816955566 -19.876880645751953 2.503606796264648 0.000000000000000
15.091412544250488 -18.548803329467773 1.374600172042847 0.000000000000000
15.091414451599121 -11.924468994140625 2.850509405136108 0.000000000000000
15.094347000122070 -15.099085807800293 1.680280089378357 0.000000000000000
15.097327232360840 -10.803044319152832 2.470417737960815 0.000000000000000
15.098603248596191 -21.513454437255859 2.985277175903320 0.000000000000000
15.108384132385254 -12.785211563110352 2.108171701431274 0.000000000000000
15.112485885620117 -15.454468727111816 2.168940544128418 0.000000000000000
15.117428779602051 -11.273109436035156 -1.199655294418335 0.000000000000000
15.119292259216309 -15.911261558532715 2.086392879486084 0.000000000000000
15.124511718750000 -13.116978645324707 1.744493722915649 0.000000000000000
15.125243186950684 -11.361307144165039 -1.495443344116211 1.000000000000000
15.126659393310547 -11.669717788696289 1.503590345382690 0.000000000000000
15.127984046936035 -22.036886215209961 1.639545202255249 0.000000000000000
15.131311416625977 -15.691385269165039 2.187311172485352 0.000000000000000
15.138787269592285 -20.289539337158203 3.099319458007812 0.000000000000000
15.140385627746582 -16.235509872436523 1.404461503028870 0.000000000000000
15.143716812133789 -15.310618400573730 1.196441173553467 0.000000000000000
15.149860382080078 -11.687616348266602 -0.260501205921173 1.000000000000000
15.150560379028320 -30.544692993164062 1.959975957870483 0.000000000000000
15.153434753417969 -30.515695571899414 1.499488711357117 0.000000000000000
15.163131713867188 -15.321689605712891 0.575766682624817 0.000000000000000
15.170306205749512 -20.155084609985352 2.397913694381714 0.000000000000000
15.170893669128418 -11.709335327148438 0.548692941665649 1.000000000000000
15.171855926513672 -15.937031745910645 1.731749296188354 0.000000000000000
15.176879882812500 -13.162395477294922 1.425933957099915 0.000000000000000
15.177063941955566 -22.026714324951172 2.001892328262329 0.000000000000000
15.177298545837402 -11.978138923645020 -1.491109967231750 0.000000000000000
15.178804397583008 -17.319080352783203 1.856935501098633 0.000000000000000
