# This PCD file was generated using the MATLAB® pcwrite function
# from Computer Vision Toolbox®.
# .PCD v.7 - Point Cloud Data file format
VERSION .7
FIELDS x y z intensity
SIZE 8 8 8 8
TYPE F F F F
COUNT 1 1 1 1
WIDTH 629
HEIGHT 1
VIEWPOINT 0 0 0 1 0 0 0
POINTS 629
DATA ascii
-12.052863121032715 -12.068867683410645 2.088248968124390 0.000000000000000
-12.049386024475098 -12.075489997863770 0.849241018295288 0.000000000000000
-12.034013748168945 -22.064611434936523 2.278430938720703 0.000000000000000
-12.027870178222656 -10.408584594726562 1.036973595619202 0.000000000000000
-12.027245521545410 -16.689691543579102 -0.082581080496311 0.000000000000000
-12.024306297302246 -10.703484535217285 2.142224788665771 0.000000000000000
-12.020484924316406 -10.458089828491211 0.854539096355438 0.000000000000000
-12.004933357238770 -11.066978454589844 0.812845051288605 0.000000000000000
-12.003724098205566 -10.009646415710449 0.838258087635040 0.000000000000000
-11.979720115661621 -10.851887702941895 1.835947751998901 0.000000000000000
-11.974174499511719 -16.414077758789062 -0.315626621246338 0.000000000000000
-11.973972320556641 -15.929299354553223 0.570558249950409 0.000000000000000
-11.965209960937500 -9.215119361877441 -0.408660918474197 0.000000000000000
-11.962435722351074 -16.259885787963867 0.267775923013687 0.000000000000000
-11.959026336669922 -11.655665397644043 -0.131160154938698 0.000000000000000
-11.956610679626465 -12.345161437988281 0.690266847610474 0.000000000000000
-11.953557014465332 -13.204228401184082 0.167871654033661 0.000000000000000
-11.951541900634766 -12.931821823120117 0.978321492671967 0.000000000000000
-11.933847427368164 -10.548529624938965 2.119536161422729 0.000000000000000
-11.923712730407715 -11.885484695434570 3.501823902130127 0.000000000000000
-11.911964416503906 -10.022989273071289 1.905964851379395 0.000000000000000
-11.908366203308105 -11.257639884948730 1.745511889457703 0.000000000000000
-11.907831192016602 -17.353242874145508 1.047728776931763 0.000000000000000
-11.906870841979980 -22.570020675659180 -0.543441891670227 1.000000000000000
-11.904498100280762 -11.652860641479492 1.118139147758484 0.000000000000000
-11.899423599243164 -12.338582038879395 1.415326118469238 0.000000000000000
-11.885997772216797 -20.392702102661133 1.629840731620789 0.000000000000000
-11.885699272155762 -11.446261405944824 0.789718747138977 0.000000000000000
-11.885165214538574 -12.308312416076660 1.943387031555176 0.000000000000000
-11.884941101074219 -13.333742141723633 3.715240478515625 0.000000000000000
-11.877371788024902 -10.597610473632812 1.695519089698792 0.000000000000000
-11.872816085815430 -16.116855621337891 1.814727425575256 0.000000000000000
-11.864551544189453 -10.767178535461426 1.106307744979858 0.000000000000000
-11.862068176269531 -10.175644874572754 0.597657680511475 0.000000000000000
-11.858060836791992 -10.654953956604004 1.698061108589172 0.000000000000000
-11.852475166320801 -8.954854011535645 -0.173717752099037 0.000000000000000
-11.850814819335938 -12.283883094787598 2.089707374572754 0.000000000000000
-11.846261978149414 -16.521697998046875 1.246984958648682 0.000000000000000
-11.842580795288086 -15.611077308654785 1.390816569328308 0.000000000000000
-11.837236404418945 -9.750235557556152 1.266223073005676 0.000000000000000
-11.835687637329102 -12.774225234985352 2.317401647567749 0.000000000000000
-11.834955215454102 -11.136332511901855 1.989572644233704 0.000000000000000
-11.829482078552246 -9.376604080200195 1.714514136314392 0.000000000000000
-11.825057029724121 -10.882845878601074 1.357971072196960 0.000000000000000
-11.822286605834961 -16.044736862182617 0.494036793708801 0.000000000000000
-11.810621261596680 -18.652990341186523 0.674534738063812 0.000000000000000
-11.807972908020020 -19.183090209960938 3.338397741317749 0.000000000000000
-11.801556587219238 -15.113999366760254 1.361080169677734 0.000000000000000
-11.798587799072266 -19.049951553344727 1.850127458572388 0.000000000000000
-11.798492431640625 -11.915205955505371 0.963918924331665 0.000000000000000
-11.794329643249512 -9.298566818237305 -0.175635471940041 0.000000000000000
-11.790826797485352 -16.351993560791016 -0.119631148874760 0.000000000000000
-11.788084030151367 -16.539102554321289 -0.276510268449783 0.000000000000000
-11.775693893432617 -10.605860710144043 0.088511474430561 0.000000000000000
-11.775092124938965 -14.361786842346191 -0.074552588164806 0.000000000000000
-11.774079322814941 -19.641141891479492 1.051891684532166 0.000000000000000
-11.773179054260254 -11.326416969299316 -0.316537529230118 0.000000000000000
-11.764016151428223 -14.645091056823730 0.754477739334106 0.000000000000000
-11.748207092285156 -19.443761825561523 0.694079399108887 0.000000000000000
-11.746550559997559 -21.717544555664062 2.238344430923462 0.000000000000000
-11.739814758300781 -17.610431671142578 0.687318384647369 0.000000000000000
-11.738436698913574 -14.846388816833496 0.251063138246536 0.000000000000000
-11.718077659606934 -11.352434158325195 2.788836240768433 0.000000000000000
-11.712295532226562 -10.499251365661621 2.093154191970825 0.000000000000000
-11.704073905944824 -22.614221572875977 1.022718667984009 0.000000000000000
-11.699874877929688 -0.013886938802898 -1.405483007431030 1.000000000000000
-11.698081016540527 -10.856841087341309 0.364966124296188 0.000000000000000
-11.692579269409180 -14.569695472717285 0.498976439237595 0.000000000000000
-11.690075874328613 -16.625896453857422 0.894487500190735 0.000000000000000
-11.687044143676758 -10.984085083007812 2.134310007095337 0.000000000000000
-11.686866760253906 -31.029912948608398 -0.642451107501984 1.000000000000000
-11.680011749267578 -10.977475166320801 0.859680473804474 0.000000000000000
-11.677042961120605 -11.703975677490234 -0.606233477592468 0.000000000000000
-11.674393653869629 -14.871797561645508 1.123262763023376 0.000000000000000
-11.673501014709473 -15.500267982482910 0.779359400272369 0.000000000000000
-11.672034263610840 -9.588197708129883 0.751986026763916 0.000000000000000
-11.670993804931641 -10.428478240966797 1.777713775634766 0.000000000000000
-11.669283866882324 -11.684776306152344 1.235883474349976 0.000000000000000
-11.668706893920898 -10.083538055419922 1.243529438972473 0.000000000000000
-11.658445358276367 -11.412009239196777 0.843570947647095 0.000000000000000
-11.649170875549316 -10.442665100097656 0.598269104957581 0.000000000000000
-11.648272514343262 -15.496012687683105 1.450819730758667 0.000000000000000
-11.645162582397461 -15.689380645751953 1.386851787567139 0.000000000000000
-11.638000488281250 -12.649136543273926 2.287326097488403 0.000000000000000
-11.636117935180664 -12.590526580810547 -0.365105062723160 0.000000000000000
-11.630797386169434 -18.511642456054688 2.193700790405273 0.000000000000000
-11.626620292663574 -12.830475807189941 2.119845151901245 0.000000000000000
-11.625281333923340 -11.247596740722656 0.369904279708862 0.000000000000000
-11.621006011962891 -13.604526519775391 1.559071779251099 0.000000000000000
-11.618966102600098 -11.715896606445312 0.345633715391159 0.000000000000000
-11.615168571472168 -12.740761756896973 1.223726034164429 0.000000000000000
-11.611815452575684 -10.900787353515625 1.253462672233582 0.000000000000000
-11.598793983459473 -10.834228515625000 0.088645517826080 0.000000000000000
-11.586584091186523 -15.749011039733887 0.559797286987305 0.000000000000000
-11.584890365600586 -18.438577651977539 1.671743035316467 0.000000000000000
-11.574407577514648 -21.216636657714844 2.105962276458740 0.000000000000000
-11.573586463928223 -10.140479087829590 0.115484565496445 0.000000000000000
-11.573417663574219 -11.140460968017578 1.966726183891296 0.000000000000000
-11.568334579467773 -10.226882934570312 1.890409946441650 0.000000000000000
-11.567861557006836 -10.755542755126953 2.340924501419067 0.000000000000000
-11.566642761230469 -12.273366928100586 1.262153387069702 0.000000000000000
-11.565628051757812 -12.358438491821289 1.005599021911621 0.000000000000000
-11.557293891906738 -10.726178169250488 -0.366080671548843 0.000000000000000
-11.554427146911621 -19.539031982421875 1.655015945434570 0.000000000000000
-11.553016662597656 -10.703458786010742 2.095792293548584 0.000000000000000
-11.550750732421875 -10.403264045715332 1.043400049209595 0.000000000000000
-11.548163414001465 -11.248934745788574 0.585508942604065 0.000000000000000
-11.547396659851074 -12.308777809143066 0.872695267200470 0.000000000000000
-11.546703338623047 -10.720845222473145 1.118373990058899 0.000000000000000
-11.543089866638184 -13.492318153381348 0.747313261032104 0.000000000000000
-11.541836738586426 -17.438476562500000 1.000820279121399 0.000000000000000
-11.540112495422363 -14.264082908630371 1.019371509552002 0.000000000000000
-11.533473014831543 -10.995472908020020 -0.186346665024757 0.000000000000000
-11.528473854064941 -15.478473663330078 0.033684838563204 0.000000000000000
-11.519153594970703 -15.207868576049805 1.813481330871582 0.000000000000000
-11.518983840942383 -10.447710037231445 -0.152000412344933 0.000000000000000
-11.513421058654785 -17.602394104003906 0.885237395763397 0.000000000000000
-11.510724067687988 -10.193859100341797 1.269514560699463 0.000000000000000
-11.503525733947754 -9.675891876220703 0.083954095840454 0.000000000000000
-11.501232147216797 -18.684762954711914 1.557340741157532 0.000000000000000
-11.496261596679688 -10.088344573974609 1.453888893127441 0.000000000000000
-11.493462562561035 -10.576925277709961 1.774102449417114 0.000000000000000
-11.487576484680176 -10.721336364746094 0.842756867408752 0.000000000000000
-11.486634254455566 -16.176418304443359 -0.079642653465271 0.000000000000000
-11.485527992248535 -19.640172958374023 0.738860845565796 0.000000000000000
-11.484857559204102 -9.077353477478027 -0.171191960573196 0.000000000000000
-11.484694480895996 -19.421112060546875 1.297009110450745 0.000000000000000
-11.484243392944336 -13.809287071228027 -0.347997575998306 0.000000000000000
-11.480286598205566 -12.163859367370605 1.187192678451538 0.000000000000000
-11.467296600341797 -19.250316619873047 2.129922628402710 0.000000000000000
-11.466228485107422 -15.265480041503906 1.915744423866272 0.000000000000000
-11.465179443359375 -10.962493896484375 2.350893497467041 0.000000000000000
-11.465115547180176 -11.168037414550781 3.329135656356812 0.000000000000000
-11.463368415832520 -16.050893783569336 0.792201638221741 0.000000000000000
-11.460653305053711 -9.708340644836426 0.776647090911865 0.000000000000000
-11.459693908691406 -9.832212448120117 1.159197688102722 0.000000000000000
-11.458891868591309 -9.770227432250977 0.633778154850006 0.000000000000000
-11.454392433166504 -11.389805793762207 0.586670458316803 0.000000000000000
-11.453186035156250 -11.133068084716797 0.334576100111008 0.000000000000000
-11.448727607727051 -19.360290527343750 0.946630418300629 0.000000000000000
-11.444603919982910 -9.823772430419922 0.402855098247528 0.000000000000000
-11.442652702331543 -18.497619628906250 2.182518720626831 0.000000000000000
-11.437338829040527 -11.452523231506348 3.366605758666992 0.000000000000000
-11.426166534423828 -10.470885276794434 0.652280151844025 0.000000000000000
-11.426130294799805 -21.344511032104492 2.429325103759766 0.000000000000000
-11.424579620361328 -11.792545318603516 0.975471258163452 0.000000000000000
-11.422320365905762 -13.746534347534180 2.648786544799805 0.000000000000000
-11.421214103698730 -10.089723587036133 0.788007676601410 0.000000000000000
-11.420631408691406 -11.925149917602539 1.363321065902710 0.000000000000000
-11.420478820800781 -14.238784790039062 1.366039276123047 0.000000000000000
-11.417716979980469 -14.213980674743652 1.012936592102051 0.000000000000000
-11.414202690124512 -11.326091766357422 1.968670606613159 0.000000000000000
-11.407505989074707 -11.896468162536621 1.872061729431152 0.000000000000000
-11.383624076843262 -10.956235885620117 0.118576563894749 0.000000000000000
-11.378355979919434 -12.243711471557617 0.993026018142700 0.000000000000000
-11.376163482666016 -12.931905746459961 0.990088582038879 0.000000000000000
-11.367729187011719 -15.789609909057617 0.557049810886383 0.000000000000000
-11.366508483886719 -14.983510971069336 1.044888973236084 0.000000000000000
-11.360874176025391 -18.245622634887695 1.691578269004822 0.000000000000000
-11.359017372131348 -16.366632461547852 1.893727183341980 0.000000000000000
-11.352560043334961 -12.290598869323730 1.516787171363831 0.000000000000000
-11.352198600769043 -15.869457244873047 -0.078325986862183 0.000000000000000
-11.349884986877441 -17.565759658813477 2.375401020050049 0.000000000000000
-11.347078323364258 -8.683032989501953 -0.331728696823120 0.000000000000000
-11.344577789306641 -15.858802795410156 0.221215754747391 0.000000000000000
-11.343043327331543 -14.269360542297363 0.521905064582825 0.000000000000000
-11.342729568481445 -14.745864868164062 1.686522722244263 0.000000000000000
-11.342500686645508 -20.288366317749023 0.620836913585663 0.000000000000000
-11.341788291931152 -12.802444458007812 0.983201801776886 0.000000000000000
-11.338015556335449 -10.361744880676270 0.115274429321289 0.000000000000000
-11.336865425109863 -9.979328155517578 0.374393433332443 0.000000000000000
-11.327002525329590 -17.644294738769531 1.650151848793030 0.000000000000000
-11.326444625854492 -0.052981086075306 -1.360637426376343 0.000000000000000
-11.319487571716309 -10.820165634155273 1.917145013809204 0.000000000000000
-11.316249847412109 -15.728523254394531 0.778235733509064 0.000000000000000
-11.311758995056152 -19.281970977783203 1.285072088241577 0.000000000000000
-11.311409950256348 -7.986424446105957 -0.960969924926758 0.000000000000000
-11.310294151306152 -17.371160507202148 1.671434760093689 0.000000000000000
-11.299351692199707 -0.045752242207527 -1.417434811592102 0.000000000000000
-11.287022590637207 -12.651375770568848 1.537010908126831 0.000000000000000
-11.286983489990234 -10.296319961547852 1.735279798507690 0.000000000000000
-11.286619186401367 -12.307691574096680 2.044501066207886 0.000000000000000
-11.284243583679199 -17.684774398803711 0.640942335128784 0.000000000000000
-11.283014297485352 -30.261499404907227 -1.122175455093384 1.000000000000000
-11.281637191772461 -15.111250877380371 2.794801235198975 0.000000000000000
-11.280915260314941 -10.237523078918457 2.027198791503906 0.000000000000000
-11.275204658508301 -12.549670219421387 1.529427051544189 0.000000000000000
-11.267208099365234 -9.972593307495117 0.633273541927338 0.000000000000000
-11.265182495117188 -11.701353073120117 1.988600373268127 0.000000000000000
-11.263617515563965 -20.186124801635742 1.774619579315186 0.000000000000000
-11.259215354919434 -15.638885498046875 0.255625993013382 0.000000000000000
-11.254989624023438 -14.112015724182129 1.281216502189636 0.000000000000000
-11.250047683715820 -10.070013999938965 0.635460138320923 0.000000000000000
-11.247029304504395 -10.496833801269531 2.047249317169189 0.000000000000000
-11.241328239440918 -12.244570732116699 1.179829359054565 0.000000000000000
-11.239319801330566 -12.590828895568848 1.197954416275024 0.000000000000000
-11.231162071228027 -15.491320610046387 1.136784672737122 0.000000000000000
-11.230666160583496 -21.438524246215820 1.204848289489746 0.000000000000000
-11.227608680725098 -18.172662734985352 1.351424813270569 0.000000000000000
-11.222410202026367 -10.958375930786133 1.490983724594116 0.000000000000000
-11.221748352050781 -12.064213752746582 1.493674159049988 0.000000000000000
-11.215518951416016 -13.017171859741211 1.252751111984253 0.000000000000000
-11.214075088500977 -19.698698043823242 0.474806547164917 0.000000000000000
-11.213800430297852 -14.998522758483887 1.040451169013977 0.000000000000000
-11.211346626281738 -10.974361419677734 0.328628450632095 0.000000000000000
-11.205106735229492 -11.206676483154297 1.339110374450684 0.000000000000000
-11.198970794677734 -15.597075462341309 0.328453570604324 0.000000000000000
-11.198267936706543 -15.927025794982910 0.295658558607101 0.000000000000000
-11.195173263549805 -15.477461814880371 0.620326280593872 0.000000000000000
-11.190535545349121 -10.864093780517578 0.776448965072632 0.000000000000000
-11.190444946289062 -11.826945304870605 1.375821352005005 0.000000000000000
-11.190321922302246 -11.103939056396484 0.330220073461533 0.000000000000000
-11.183182716369629 -10.470166206359863 -0.120321765542030 0.000000000000000
-11.181401252746582 -11.646835327148438 0.586380064487457 0.000000000000000
-11.179674148559570 -11.563959121704102 0.336921662092209 0.000000000000000
-11.178964614868164 -8.074692726135254 -0.399648219347000 0.000000000000000
-11.172895431518555 -15.269181251525879 1.342954993247986 0.000000000000000
-11.172731399536133 -14.029960632324219 1.704846501350403 0.000000000000000
-11.169083595275879 -8.300338745117188 -0.349810987710953 0.000000000000000
-11.168807983398438 -12.268337249755859 2.458791732788086 0.000000000000000
-11.166037559509277 -18.282859802246094 1.190228223800659 0.000000000000000
-11.163756370544434 -21.208925247192383 2.404963970184326 0.000000000000000
-11.163625717163086 -11.720509529113770 1.367738246917725 0.000000000000000
-11.163414955139160 -18.405431747436523 1.403362274169922 0.000000000000000
-11.163211822509766 -10.417883872985840 0.290518373250961 0.000000000000000
-11.162917137145996 -19.715126037597656 0.735744893550873 0.000000000000000
-11.161793708801270 -10.948772430419922 1.914228439331055 0.000000000000000
-11.152310371398926 -11.511507034301758 1.523536205291748 0.000000000000000
-11.145298957824707 -12.398114204406738 0.157127574086189 0.000000000000000
-11.141134262084961 -10.595479011535645 -0.179798334836960 0.000000000000000
-11.140388488769531 -11.044363975524902 1.781776666641235 0.000000000000000
-11.133857727050781 -16.752735137939453 1.001388430595398 0.000000000000000
-11.132944107055664 -19.882562637329102 1.222147345542908 0.000000000000000
-11.131156921386719 -15.129973411560059 1.405742764472961 0.000000000000000
-11.123517036437988 -11.622215270996094 1.141879916191101 0.000000000000000
-11.123194694519043 -9.137344360351562 -0.168338760733604 0.000000000000000
-11.120709419250488 -12.198387145996094 0.662977218627930 0.000000000000000
-11.120612144470215 -12.198279380798340 0.917079329490662 0.000000000000000
-11.118721961975098 -12.196206092834473 2.445890665054321 0.000000000000000
-11.106451034545898 -20.363904953002930 0.619555294513702 0.000000000000000
-11.103970527648926 -18.600505828857422 1.830499291419983 0.000000000000000
-11.081923484802246 -17.817020416259766 1.610813140869141 0.000000000000000
-11.080388069152832 -13.806866645812988 3.026069402694702 0.000000000000000
-11.079814910888672 -15.603501319885254 0.511151790618896 0.000000000000000
-11.076325416564941 -11.954648017883301 1.125320196151733 0.000000000000000
-11.075657844543457 -11.352816581726074 3.298996686935425 0.000000000000000
-11.062374114990234 -17.568115234375000 1.513656139373779 0.000000000000000
-11.057992935180664 -10.550274848937988 0.114704065024853 0.000000000000000
-11.054930686950684 -10.380549430847168 0.317654639482498 0.000000000000000
-11.053692817687988 -14.698617935180664 2.725605487823486 0.000000000000000
-11.047289848327637 -16.080526351928711 2.078091144561768 0.000000000000000
-11.045269966125488 -10.809153556823730 0.739620387554169 0.000000000000000
-11.039659500122070 -8.701719284057617 -0.299357175827026 0.000000000000000
-11.037259101867676 -10.157818794250488 0.343018800020218 0.000000000000000
-11.035620689392090 -13.364449501037598 -0.069574922323227 0.000000000000000
-11.033959388732910 -10.673250198364258 3.193102836608887 0.000000000000000
-11.033692359924316 -10.711825370788574 1.239992976188660 0.000000000000000
-11.028319358825684 -20.053810119628906 1.315603494644165 0.000000000000000
-11.028081893920898 -10.952886581420898 2.068354845046997 0.000000000000000
-11.021342277526855 -12.452108383178711 1.580692529678345 0.000000000000000
-11.018280982971191 -18.455501556396484 1.401280522346497 0.000000000000000
-11.016571998596191 -16.961441040039062 1.435562849044800 0.000000000000000
-11.013809204101562 -15.501369476318359 -0.404962569475174 0.000000000000000
-11.004472732543945 -7.872908115386963 -0.184213116765022 0.000000000000000
-10.999747276306152 -10.256712913513184 0.083998776972294 0.000000000000000
-10.999264717102051 -15.300895690917969 0.865594267845154 0.000000000000000
-10.999236106872559 -10.842181205749512 0.323518514633179 0.000000000000000
-10.998546600341797 -8.662467956542969 -0.325044006109238 0.000000000000000
-10.990048408508301 -11.726157188415527 0.892893075942993 0.000000000000000
-10.982700347900391 -16.699869155883789 2.005600929260254 0.000000000000000
-10.974791526794434 -19.717006683349609 1.732366800308228 0.000000000000000
-10.968649864196777 -19.835296630859375 0.997548758983612 0.000000000000000
-10.953703880310059 -11.183212280273438 2.083128929138184 0.000000000000000
-10.950231552124023 -22.946298599243164 1.951897859573364 0.000000000000000
-10.948527336120605 -11.414624214172363 2.104762077331543 0.000000000000000
-10.948099136352539 -19.231483459472656 0.803713798522949 0.000000000000000
-10.939392089843750 -19.562509536743164 1.245257496833801 0.000000000000000
-10.933766365051270 -20.597242355346680 1.790234684944153 0.000000000000000
-10.922830581665039 -13.433830261230469 0.695403754711151 0.000000000000000
-10.920494079589844 -16.559288024902344 0.796696364879608 0.000000000000000
-10.919168472290039 -19.531150817871094 0.941752612590790 0.000000000000000
-10.899779319763184 2.448774814605713 -0.109191656112671 1.000000000000000
-10.895265579223633 -13.001050949096680 2.513913631439209 0.000000000000000
-10.894393920898438 -10.564044952392578 3.156447410583496 0.000000000000000
-10.887970924377441 -21.770298004150391 0.369633972644806 0.000000000000000
-10.887473106384277 -16.660646438598633 2.949611663818359 0.000000000000000
-10.879562377929688 -13.276145935058594 2.543820381164551 0.000000000000000
-10.877553939819336 -19.681104660034180 1.422645449638367 0.000000000000000
-10.872624397277832 -15.591924667358398 2.024708986282349 0.000000000000000
-10.872535705566406 -13.738406181335449 1.588292837142944 0.000000000000000
-10.863626480102539 -14.783089637756348 1.125274181365967 0.000000000000000
-10.863286018371582 -13.249679565429688 1.553262233734131 0.000000000000000
-10.856070518493652 2.478794097900391 -0.108839802443981 1.000000000000000
-10.850565910339355 -12.262612342834473 1.426776409149170 0.000000000000000
-10.847199440002441 -17.834203720092773 2.223409175872803 0.000000000000000
-10.846268653869629 -10.767803192138672 0.996379435062408 0.000000000000000
-10.843199729919434 -11.984421730041504 1.465144157409668 0.000000000000000
-10.840271949768066 -19.711864471435547 0.600865066051483 0.000000000000000
-10.837830543518066 -20.272745132446289 0.746520757675171 0.000000000000000
-10.836777687072754 -10.543460845947266 -0.118750989437103 0.000000000000000
-10.836458206176758 -15.730658531188965 1.815752506256104 0.000000000000000
-10.822031974792480 -19.357400894165039 1.616912961006165 0.000000000000000
-10.821637153625488 -11.472406387329102 0.178923845291138 0.000000000000000
-10.801228523254395 -15.374870300292969 2.001407384872437 0.000000000000000
-10.800752639770508 -7.794910430908203 -0.334833413362503 0.000000000000000
-10.790903091430664 -20.016607284545898 0.738471329212189 0.000000000000000
-10.788991928100586 -19.960491180419922 2.156797409057617 0.000000000000000
-10.786323547363281 -10.348773956298828 -0.347047835588455 0.000000000000000
-10.784699440002441 -11.850566864013672 1.396220088005066 0.000000000000000
-10.775058746337891 -19.593282699584961 1.630292654037476 0.000000000000000
-10.770818710327148 -18.500183105468750 1.560776114463806 0.000000000000000
-10.761831283569336 -21.113992691040039 0.268862217664719 0.000000000000000
-10.756690979003906 -19.787473678588867 1.077880024909973 0.000000000000000
-10.751817703247070 -8.483352661132812 -0.107567034661770 0.000000000000000
-10.746852874755859 -16.869827270507812 1.574203491210938 0.000000000000000
-10.741017341613770 -11.307600975036621 -0.062606193125248 0.000000000000000
-10.740653038024902 -18.075662612915039 1.330210089683533 0.000000000000000
-10.731531143188477 -8.528301239013672 -0.107661277055740 0.000000000000000
-10.730525970458984 -14.566244125366211 1.319068193435669 0.000000000000000
-10.721892356872559 -15.324965476989746 1.695551276206970 0.000000000000000
-10.712139129638672 -18.345592498779297 1.303064942359924 0.000000000000000
-10.709188461303711 -18.121242523193359 1.575303673744202 0.000000000000000
-10.707253456115723 -14.447865486145020 1.709388852119446 0.000000000000000
-10.707185745239258 -11.769518852233887 0.639058709144592 0.000000000000000
-10.705421447753906 -0.345410555601120 -1.286689639091492 0.000000000000000
-10.704724311828613 -7.955249309539795 -0.540334701538086 0.000000000000000
-10.698290824890137 -7.952206134796143 -0.514419972896576 0.000000000000000
-10.696033477783203 -11.383746147155762 1.319912910461426 0.000000000000000
-10.689829826354980 -17.323183059692383 0.700174748897552 0.000000000000000
-10.675937652587891 -13.290536880493164 1.485458731651306 0.000000000000000
-10.672872543334961 -16.724699020385742 0.796856880187988 0.000000000000000
-10.670600891113281 -9.615949630737305 -0.333492726087570 0.000000000000000
-10.670430183410645 -14.610301971435547 -0.037891767919064 0.000000000000000
-10.667985916137695 -16.766046524047852 0.683536708354950 0.000000000000000
-10.666176795959473 -15.642487525939941 2.016659259796143 0.000000000000000
-10.663617134094238 -20.523088455200195 3.077733278274536 0.000000000000000
-10.659237861633301 -15.349212646484375 1.694106698036194 0.000000000000000
-10.658722877502441 -17.796043395996094 1.632576942443848 0.000000000000000
-10.657883644104004 -20.037809371948242 0.955208659172058 0.000000000000000
-10.656641006469727 -17.821472167968750 1.674328207969666 0.000000000000000
-10.652250289916992 -23.893917083740234 1.101038217544556 0.000000000000000
-10.651229858398438 -18.763277053833008 1.614708662033081 0.000000000000000
-10.649160385131836 -16.525527954101562 1.130119681358337 0.000000000000000
-10.647630691528320 -13.934587478637695 0.974327445030212 0.000000000000000
-10.638637542724609 -18.168703079223633 2.112630367279053 0.000000000000000
-10.634024620056152 -10.149318695068359 -0.341291546821594 0.000000000000000
-10.629144668579102 -18.828334808349609 2.877229213714600 0.000000000000000
-10.626789093017578 -16.573282241821289 0.980107784271240 0.000000000000000
-10.624601364135742 -20.623630523681641 3.087230682373047 0.000000000000000
-10.622252464294434 -13.518853187561035 0.723596990108490 0.000000000000000
-10.617831230163574 -13.903633117675781 2.990349769592285 0.000000000000000
-10.616753578186035 -14.411803245544434 0.753368437290192 0.000000000000000
-10.615470886230469 -18.172754287719727 1.615712165832520 0.000000000000000
-10.607863426208496 -14.262168884277344 1.090254664421082 0.000000000000000
-10.603061676025391 -16.969768524169922 1.814005136489868 0.000000000000000
-10.600236892700195 -11.389658927917480 0.385693639516830 0.000000000000000
-10.591167449951172 -16.578792572021484 1.624333620071411 0.000000000000000
-10.588467597961426 -14.707226753234863 1.722636938095093 0.000000000000000
-10.586760520935059 -24.061386108398438 1.663078427314758 0.000000000000000
-10.585205078125000 -22.121757507324219 1.882701039314270 0.000000000000000
-10.581849098205566 -13.649908065795898 0.162782356142998 0.000000000000000
-10.575933456420898 -12.997917175292969 2.483420610427856 0.000000000000000
-10.574238777160645 -20.453042984008789 1.812091350555420 0.000000000000000
-10.552669525146484 -17.021036148071289 1.460137248039246 0.000000000000000
-10.545302391052246 -8.365298271179199 -0.312510162591934 0.000000000000000
-10.544305801391602 -14.418579101562500 1.619350790977478 0.000000000000000
-10.543753623962402 -9.380285263061523 -0.571747660636902 0.000000000000000
-10.537239074707031 -15.296298980712891 3.863491535186768 0.000000000000000
-10.534288406372070 -15.997954368591309 2.838781356811523 0.000000000000000
-10.526999473571777 13.194489479064941 -1.432233214378357 0.000000000000000
-10.519762992858887 -16.431600570678711 1.271951556205750 0.000000000000000
-10.516015052795410 -20.454931259155273 0.614322006702423 0.000000000000000
-10.513010025024414 -13.758409500122070 0.163197025656700 0.000000000000000
-10.508946418762207 -8.111111640930176 -0.155242115259171 0.000000000000000
-10.504834175109863 -10.800097465515137 1.273097872734070 0.000000000000000
-10.504673957824707 -21.712554931640625 1.386537313461304 0.000000000000000
-10.488070487976074 -21.028465270996094 -0.997219502925873 1.000000000000000
-10.486922264099121 -20.458892822265625 1.454467535018921 0.000000000000000
-10.482781410217285 -18.597867965698242 1.227223157882690 0.000000000000000
-10.476232528686523 -23.586484909057617 1.632771611213684 0.000000000000000
-10.473954200744629 -8.247518539428711 -0.130302816629410 0.000000000000000
-10.466446876525879 -16.881961822509766 1.141827225685120 0.000000000000000
-10.462469100952148 -9.634899139404297 -0.166327491402626 0.000000000000000
-10.444835662841797 -15.643030166625977 1.887389540672302 0.000000000000000
-10.428470611572266 -16.810228347778320 1.404127240180969 0.000000000000000
-10.419281959533691 -20.619524002075195 0.262100994586945 0.000000000000000
-10.417772293090820 -17.616899490356445 0.232197135686874 0.000000000000000
-10.416405677795410 -12.447284698486328 2.405428886413574 0.000000000000000
-10.413494110107422 -9.920797348022461 -0.389185398817062 0.000000000000000
-10.412678718566895 -17.760766983032227 0.906095087528229 0.000000000000000
-10.410264968872070 -21.336645126342773 1.364729166030884 0.000000000000000
-10.409073829650879 -12.166807174682617 -0.064276121556759 0.000000000000000
-10.407128334045410 -21.780830383300781 2.571240663528442 0.000000000000000
-10.406269073486328 -19.564752578735352 0.591893732547760 0.000000000000000
-10.404870033264160 -7.399278163909912 -0.910710632801056 0.000000000000000
-10.398684501647949 -16.941890716552734 1.219312310218811 0.000000000000000
-10.394887924194336 -16.087749481201172 1.544445633888245 0.000000000000000
-10.373147964477539 -7.503665924072266 -0.371027439832687 0.000000000000000
-10.371392250061035 -19.175090789794922 0.582281589508057 0.000000000000000
-10.352773666381836 -18.043357849121094 1.436408996582031 0.000000000000000
-10.350561141967773 -16.000148773193359 2.029793024063110 0.000000000000000
-10.348508834838867 -22.275632858276367 2.789809942245483 0.000000000000000
-10.347283363342285 -14.515997886657715 -0.585133254528046 0.000000000000000
-10.342956542968750 -15.693073272705078 1.703857660293579 0.000000000000000
-10.342593193054199 -20.708726882934570 0.751713931560516 0.000000000000000
-10.341880798339844 -20.527723312377930 1.100061058998108 0.000000000000000
-10.335701942443848 -6.804533958435059 -0.192234009504318 0.000000000000000
-10.333436012268066 -16.175354003906250 1.436490654945374 0.000000000000000
-10.328578948974609 -16.419296264648438 1.451715350151062 0.000000000000000
-10.322160720825195 -6.905130863189697 -0.169075310230255 0.000000000000000
-10.316790580749512 -23.010658264160156 1.595393538475037 0.000000000000000
-10.316509246826172 -7.842298984527588 -1.174787759780884 0.000000000000000
-10.312882423400879 -19.350063323974609 2.917857885360718 0.000000000000000
-10.301291465759277 -19.098026275634766 0.621271967887878 0.000000000000000
-10.300762176513672 -16.268407821655273 1.932118177413940 0.000000000000000
-10.298793792724609 -15.199251174926758 1.842261552810669 0.000000000000000
-10.291541099548340 -7.447367191314697 -0.563533067703247 0.000000000000000
-10.285280227661133 -8.042681694030762 -0.303133010864258 0.000000000000000
-10.285279273986816 -19.188396453857422 1.629336237907410 0.000000000000000
-10.283514022827148 -8.142143249511719 -0.783864378929138 0.000000000000000
-10.280430793762207 -15.035572052001953 3.788551330566406 0.000000000000000
-10.276399612426758 -15.233098030090332 2.723259687423706 0.000000000000000
-10.276315689086914 -17.294219970703125 0.962768554687500 0.000000000000000
-10.273047447204590 -19.056011199951172 1.369608879089355 0.000000000000000
-10.255806922912598 -16.806985855102539 2.410527706146240 0.000000000000000
-10.253955841064453 -24.328989028930664 1.873963236808777 0.000000000000000
-10.253349304199219 -16.167924880981445 2.343933105468750 0.000000000000000
-10.253072738647461 -19.085094451904297 1.161950469017029 0.000000000000000
-10.241128921508789 -17.019872665405273 1.065335392951965 0.000000000000000
-10.234464645385742 -17.951663970947266 1.347154855728149 0.000000000000000
-10.232400894165039 -16.623434066772461 0.784014761447906 0.000000000000000
-10.228016853332520 -13.482733726501465 0.159502595663071 0.000000000000000
-10.222436904907227 -13.315401077270508 0.416124910116196 0.000000000000000
-10.221296310424805 -8.595549583435059 -0.156177580356598 0.000000000000000
-10.202488899230957 -17.148160934448242 0.303007543087006 0.000000000000000
-10.202081680297852 -11.672639846801758 2.297530651092529 0.000000000000000
-10.190066337585449 -12.876046180725098 1.197196125984192 0.000000000000000
-10.187340736389160 -15.957713127136230 1.649699449539185 0.000000000000000
-10.177106857299805 -20.126291275024414 0.559062480926514 0.000000000000000
-10.176103591918945 -17.017852783203125 0.682024121284485 0.000000000000000
-10.172423362731934 -18.220819473266602 3.092694282531738 0.000000000000000
-10.168499946594238 -15.095871925354004 2.697458267211914 0.000000000000000
-10.161690711975098 -15.104533195495605 1.826686382293701 0.000000000000000
-10.152175903320312 -16.248144149780273 0.806351482868195 0.000000000000000
-10.144238471984863 -15.801879882812500 2.000136375427246 0.000000000000000
-10.139155387878418 -19.718509674072266 1.830707788467407 0.000000000000000
-10.128575325012207 -16.182697296142578 1.576278209686279 0.000000000000000
-10.120676994323730 -17.168478012084961 0.647201001644135 0.000000000000000
-10.116484642028809 -21.702791213989258 1.053827881813049 0.000000000000000
-10.116425514221191 -18.270065307617188 3.095040082931519 0.000000000000000
-10.111536026000977 -8.846369743347168 -0.157113060355186 0.000000000000000
-10.109646797180176 -9.303461074829102 -0.371765673160553 0.000000000000000
-10.108876228332520 -7.693654060363770 -0.099775962531567 0.000000000000000
-10.105737686157227 -12.873515129089355 1.555710315704346 0.000000000000000
-10.103819847106934 -19.385305404663086 1.720451235771179 0.000000000000000
-10.103301048278809 -8.545212745666504 -0.307218104600906 0.000000000000000
-10.103032112121582 -12.950846672058105 0.691302597522736 0.000000000000000
-10.102144241333008 -11.175554275512695 1.243841290473938 0.000000000000000
-10.098525047302246 0.908552944660187 -1.488564968109131 0.000000000000000
-10.098141670227051 -19.115617752075195 1.826794505119324 0.000000000000000
-10.095388412475586 -16.616411209106445 1.492627620697021 0.000000000000000
-10.094410896301270 -14.007579803466797 0.461168736219406 0.000000000000000
-10.080123901367188 -6.973561763763428 -0.261032640933990 0.000000000000000
-10.068537712097168 -20.884485244750977 2.469560384750366 0.000000000000000
-10.066271781921387 -21.867551803588867 2.734284400939941 0.000000000000000
-10.045238494873047 -7.465150356292725 -0.122327491641045 0.000000000000000
-10.028745651245117 3.386351585388184 -1.327818274497986 1.000000000000000
-10.026399612426758 -11.251805305480957 1.313231468200684 0.000000000000000
-10.025334358215332 -13.336973190307617 1.585991740226746 0.000000000000000
-10.020563125610352 -16.325843811035156 1.922134160995483 0.000000000000000
-10.010732650756836 -21.281600952148438 1.397258281707764 0.000000000000000
-10.006778717041016 -7.130920410156250 -0.096508733928204 0.000000000000000
-10.000258445739746 -16.942567825317383 0.298756062984467 0.000000000000000
-9.993326187133789 -9.132841110229492 -0.522440850734711 0.000000000000000
-9.985616683959961 -15.912885665893555 0.899093866348267 0.000000000000000
-9.984969139099121 -9.943927764892578 -0.056568767875433 0.000000000000000
-9.979667663574219 -17.022186279296875 0.564948856830597 0.000000000000000
-9.978922843933105 -16.105657577514648 2.319628715515137 0.000000000000000
-9.974267959594727 -16.104412078857422 1.417683720588684 0.000000000000000
-9.963973999023438 -8.442293167114258 -0.102571949362755 0.000000000000000
-9.954801559448242 -13.142572402954102 3.429327249526978 0.000000000000000
-9.948460578918457 -12.844909667968750 0.184323787689209 0.000000000000000
-9.946313858032227 -9.073321342468262 -0.364300042390823 0.000000000000000
-9.943895339965820 -9.745266914367676 -0.162819460034370 0.000000000000000
-9.938823699951172 0.999210000038147 -1.466486454010010 0.000000000000000
-9.929752349853516 -19.441238403320312 0.499210745096207 0.000000000000000
-9.926471710205078 -6.584899902343750 -0.002079036319628 0.000000000000000
-9.915832519531250 -13.191300392150879 0.218910947442055 0.000000000000000
-9.914811134338379 0.779266774654388 -0.671033442020416 1.000000000000000
-9.905594825744629 -16.959548950195312 0.373686671257019 0.000000000000000
-9.902709960937500 -16.482179641723633 1.105327248573303 0.000000000000000
-9.872920989990234 -23.713502883911133 2.238257646560669 0.000000000000000
-9.868865966796875 -9.288250923156738 -0.314645558595657 0.000000000000000
-9.862265586853027 -9.276843070983887 -0.340362042188644 0.000000000000000
-9.859707832336426 -15.099398612976074 0.724298596382141 0.000000000000000
-9.858731269836426 -8.637967109680176 -0.102948941290379 0.000000000000000
-9.852063179016113 -7.484631538391113 -0.287256807088852 0.000000000000000
-9.851889610290527 -15.642116546630859 2.739679336547852 0.000000000000000
-9.847469329833984 -19.093845367431641 1.442008376121521 0.000000000000000
-9.840358734130859 -17.260385513305664 0.378023922443390 0.000000000000000
-9.835137367248535 -15.282223701477051 2.693353414535522 0.000000000000000
-9.833588600158691 2.064373970031738 -1.171473145484924 1.000000000000000
-9.831119537353516 -19.415130615234375 0.497656166553497 0.000000000000000
-9.823207855224609 -6.038788795471191 -0.156986832618713 0.000000000000000
-9.822700500488281 -16.775243759155273 0.892942368984222 0.000000000000000
-9.819675445556641 -13.842172622680664 1.613245129585266 0.000000000000000
-9.798755645751953 -16.442789077758789 2.343447208404541 0.000000000000000
-9.797713279724121 -13.154702186584473 -0.223310098052025 0.000000000000000
-9.795889854431152 -15.437045097351074 3.125141143798828 0.000000000000000
-9.795348167419434 -10.750615119934082 -0.058383204042912 0.000000000000000
-9.789875030517578 -11.682015419006348 -0.558889865875244 0.000000000000000
-9.778496742248535 -23.429073333740234 2.212215185165405 0.000000000000000
-9.774895668029785 -9.892292976379395 -0.162632361054420 0.000000000000000
-9.773732185363770 -15.994361877441406 1.221989512443542 0.000000000000000
-9.760243415832520 -15.272238731384277 2.219007730484009 0.000000000000000
-9.747604370117188 -16.363443374633789 1.425445318222046 0.000000000000000
-9.738470077514648 0.768485069274902 -0.546157598495483 1.000000000000000
-9.736308097839355 3.407508373260498 -1.385526895523071 1.000000000000000
-9.733362197875977 -18.117702484130859 1.737879753112793 0.000000000000000
-9.729810714721680 -23.407764434814453 1.946080446243286 0.000000000000000
-9.722740173339844 -16.573335647583008 0.217993959784508 0.000000000000000
-9.709680557250977 -15.766824722290039 2.464086055755615 0.000000000000000
-9.707365036010742 -23.451868057250977 2.144732236862183 0.000000000000000
-9.704577445983887 -12.700411796569824 -0.094850413501263 0.000000000000000
-9.690154075622559 -15.173067092895508 2.668137788772583 0.000000000000000
-9.690080642700195 -19.908164978027344 0.548852682113647 0.000000000000000
-9.685911178588867 -16.457859039306641 0.363338202238083 0.000000000000000
-9.685727119445801 -16.945827484130859 1.498445034027100 0.000000000000000
-9.684471130371094 -19.082530975341797 0.736063539981842 0.000000000000000
-9.683723449707031 -19.719877243041992 0.544590353965759 0.000000000000000
-9.683169364929199 -19.703977584838867 1.346655607223511 0.000000000000000
-9.680341720581055 -9.037176132202148 -0.154867917299271 0.000000000000000
-9.677979469299316 -15.981501579284668 0.786335647106171 0.000000000000000
-9.675081253051758 -15.361392021179199 1.288579821586609 0.000000000000000
-9.671385765075684 -19.740888595581055 1.348369836807251 0.000000000000000
-9.668394088745117 -13.930698394775391 3.527075529098511 0.000000000000000
-9.667985916137695 -15.186804771423340 1.382096767425537 0.000000000000000
-9.664594650268555 -15.935540199279785 0.999568760395050 0.000000000000000
-9.659544944763184 -15.737660408020020 1.417613625526428 0.000000000000000
-9.657360076904297 -23.619852066040039 1.466882944107056 0.000000000000000
-9.648619651794434 -17.018512725830078 0.898632287979126 0.000000000000000
-9.638722419738770 -15.400046348571777 0.939412534236908 0.000000000000000
-9.632148742675781 -16.622344970703125 1.474869370460510 0.000000000000000
-9.623145103454590 -5.932708263397217 -0.262467682361603 0.000000000000000
-9.621355056762695 -16.050035476684570 1.436596870422363 0.000000000000000
-9.618697166442871 -6.937735557556152 -0.320912957191467 0.000000000000000
-9.613727569580078 -16.037311553955078 1.876207470893860 0.000000000000000
-9.611921310424805 -16.373956680297852 1.054874181747437 0.000000000000000
-9.607587814331055 -16.377048492431641 0.799118936061859 0.000000000000000
-9.604096412658691 -12.592584609985352 3.294109106063843 0.000000000000000
-9.598938941955566 -17.488595962524414 0.302946805953979 0.000000000000000
-9.598361015319824 -13.417733192443848 0.694330215454102 0.000000000000000
-9.592104911804199 -17.460969924926758 1.893727183341980 0.000000000000000
-9.590735435485840 -8.462516784667969 -0.493596315383911 0.000000000000000
-9.589252471923828 -17.114439010620117 1.014392018318176 0.000000000000000
-9.584333419799805 -16.948537826538086 2.211533784866333 0.000000000000000
-9.571014404296875 -12.944406509399414 -0.219171687960625 0.000000000000000
-9.569408416748047 -7.645723819732666 -0.284378677606583 0.000000000000000
-9.567491531372070 -19.595430374145508 1.211529850959778 0.000000000000000
-9.565725326538086 -7.424754142761230 -0.677003204822540 0.000000000000000
-9.563789367675781 -15.359495162963867 1.927265405654907 0.000000000000000
-9.559991836547852 -11.993618965148926 2.621694803237915 0.000000000000000
-9.558907508850098 -19.757709503173828 0.923755168914795 0.000000000000000
-9.546704292297363 -15.018858909606934 0.920202910900116 0.000000000000000
-9.520895004272461 -15.822904586791992 0.706183791160583 0.000000000000000
-9.519465446472168 -15.719743728637695 0.490859508514404 0.000000000000000
-9.519122123718262 -15.935582160949707 1.245918750762939 0.000000000000000
-9.502397537231445 -7.923843860626221 -0.287256807088852 0.000000000000000
-9.493021011352539 -19.839229583740234 0.333982437849045 0.000000000000000
-9.481392860412598 -16.151599884033203 1.329361319541931 0.000000000000000
-9.480013847351074 -15.870111465454102 2.263242006301880 0.000000000000000
-9.477247238159180 -7.557737350463867 -0.911441385746002 0.000000000000000
-9.466843605041504 -15.253002166748047 1.516939878463745 0.000000000000000
-9.464928627014160 -12.484056472778320 0.418448120355606 0.000000000000000
-9.464212417602539 -15.121227264404297 2.184009075164795 0.000000000000000
-9.459790229797363 -18.836536407470703 0.482018679380417 0.000000000000000
-9.454521179199219 -16.911331176757812 0.219809055328369 0.000000000000000
-9.448423385620117 -9.872022628784180 -0.291010946035385 0.000000000000000
-9.438475608825684 -15.936732292175293 1.565102100372314 0.000000000000000
-9.436787605285645 -6.222888469696045 -0.305873543024063 0.000000000000000
-9.431405067443848 -17.042053222656250 0.295780062675476 0.000000000000000
-9.430821418762207 -20.048780441284180 2.106076002120972 0.000000000000000
-9.423872947692871 -17.048803329467773 0.557736694812775 0.000000000000000
-9.406755447387695 -16.692941665649414 2.345877647399902 0.000000000000000
-9.403717994689941 -23.293746948242188 0.622700452804565 0.000000000000000
-9.401442527770996 -16.604139328002930 1.501707196235657 0.000000000000000
-9.393962860107422 -11.980135917663574 -0.002657089382410 0.000000000000000
-9.390638351440430 -10.095634460449219 -0.055348437279463 0.000000000000000
-9.389188766479492 -17.312908172607422 0.715299427509308 0.000000000000000
-9.388967514038086 -17.233469009399414 1.468731045722961 0.000000000000000
-9.388346672058105 -7.889492511749268 -0.143408358097076 0.000000000000000
-9.385526657104492 -15.711935997009277 1.511107444763184 0.000000000000000
-9.385130882263184 -20.576650619506836 0.430298954248428 0.000000000000000
-9.381092071533203 -8.275788307189941 -0.506816804409027 0.000000000000000
-9.378257751464844 -16.886840820312500 1.035986781120300 0.000000000000000
-9.367085456848145 -15.663049697875977 1.401079893112183 0.000000000000000
-9.345934867858887 -16.260961532592773 2.130277156829834 0.000000000000000
-9.339928627014160 -16.630638122558594 1.206710457801819 0.000000000000000
-9.329427719116211 -13.236097335815430 1.468033194541931 0.000000000000000
-9.318236351013184 -5.563165187835693 -0.272812366485596 0.000000000000000
-9.312192916870117 -18.191356658935547 0.388828933238983 0.000000000000000
-9.311844825744629 -6.394113063812256 -0.067031420767307 1.000000000000000
-9.307197570800781 -16.897588729858398 1.630104184150696 0.000000000000000
-9.306704521179199 -15.579981803894043 0.380146801471710 0.000000000000000
-9.305081367492676 -12.200525283813477 -0.032136373221874 0.000000000000000
-9.298582077026367 -16.571229934692383 2.158265590667725 0.000000000000000
-9.275619506835938 -24.349084854125977 0.645895600318909 0.000000000000000
-9.275536537170410 -23.933588027954102 0.636280477046967 0.000000000000000
-9.274385452270508 -15.758613586425781 0.628947257995605 0.000000000000000
-9.269470214843750 -12.308156967163086 0.856059074401855 0.000000000000000
-9.259856224060059 -16.138563156127930 0.711533665657043 0.000000000000000
-9.252015113830566 -5.822022914886475 -0.316798567771912 0.000000000000000
-9.251224517822266 -15.619319915771484 1.183477044105530 0.000000000000000
-9.242765426635742 -15.606278419494629 0.972790777683258 0.000000000000000
-9.242308616638184 -15.823925018310547 0.912287771701813 0.000000000000000
-9.238217353820801 -23.034212112426758 1.378836393356323 0.000000000000000
-9.236197471618652 -6.600043296813965 -0.001981297740713 0.000000000000000
-9.224783897399902 -17.009757995605469 1.597672700881958 0.000000000000000
-9.219363212585449 -12.065409660339355 -0.323373913764954 0.000000000000000
-9.215536117553711 -18.383766174316406 1.459635257720947 0.000000000000000
-9.191840171813965 -19.155668258666992 0.853362500667572 0.000000000000000
-9.177071571350098 -8.154662132263184 -0.285028576850891 0.000000000000000
-9.165253639221191 -19.154235839843750 0.648760259151459 0.000000000000000
-9.156194686889648 -19.658817291259766 0.871020436286926 0.000000000000000
-9.150639533996582 -20.388694763183594 -0.003900462063029 0.000000000000000
-9.148170471191406 -5.760466575622559 -1.189696788787842 0.000000000000000
-9.141876220703125 -9.470656394958496 -0.153932437300682 0.000000000000000
-9.141258239746094 -7.736458301544189 -0.324050694704056 0.000000000000000
-9.140553474426270 -19.609134674072266 -1.042982459068298 0.000000000000000
