# This PCD file was generated using the MATLAB® pcwrite function
# from Computer Vision Toolbox®.
# .PCD v.7 - Point Cloud Data file format
VERSION .7
FIELDS x y z intensity
SIZE 8 8 8 8
TYPE F F F F
COUNT 1 1 1 1
WIDTH 642
HEIGHT 1
VIEWPOINT 0 0 0 1 0 0 0
POINTS 642
DATA ascii
4.439850807189941 -14.612357139587402 0.026654655113816 0.000000000000000
4.445120334625244 -14.524823188781738 1.078158974647522 0.000000000000000
4.452076435089111 -14.838599205017090 1.219254493713379 0.000000000000000
4.459530353546143 -15.595361709594727 0.339769840240479 0.000000000000000
4.463976383209229 -15.903472900390625 0.250836044549942 0.000000000000000
4.473685264587402 -13.798081398010254 -0.559769093990326 0.000000000000000
4.473766326904297 -14.541297912597656 1.620529890060425 0.000000000000000
4.476679801940918 -7.797462463378906 -0.122409433126450 1.000000000000000
4.479712963104248 -15.417266845703125 -0.187749877572060 0.000000000000000
4.483873367309570 -16.389160156250000 1.337256908416748 0.000000000000000
4.485103607177734 -16.418411254882812 -0.002970550442114 0.000000000000000
4.487804412841797 -14.733189582824707 -0.446345329284668 0.000000000000000
4.490667343139648 -14.907648086547852 -0.840479552745819 0.000000000000000
4.494541168212891 -15.255406379699707 -0.094375677406788 0.000000000000000
4.510923385620117 -16.347829818725586 2.513327360153198 0.000000000000000
4.516767024993896 -17.063924789428711 1.252896070480347 0.000000000000000
4.517344474792480 -16.828399658203125 1.236753463745117 0.000000000000000
4.520598411560059 -14.494361877441406 -0.177553191781044 0.000000000000000
4.549721240997314 -15.710379600524902 -0.725555479526520 0.000000000000000
4.553152561187744 -17.042551040649414 2.159704685211182 0.000000000000000
4.559130668640137 -23.328588485717773 0.315314501523972 0.000000000000000
4.570713520050049 -15.716114044189453 0.154262468218803 0.000000000000000
4.581291198730469 -24.720827102661133 2.522776126861572 0.000000000000000
4.582854270935059 -15.938200950622559 1.503424882888794 0.000000000000000
4.600321769714355 -17.011768341064453 1.420992732048035 0.000000000000000
4.610008716583252 -14.940525054931641 -0.874164819717407 0.000000000000000
4.630822658538818 -14.582304954528809 1.263260841369629 0.000000000000000
4.637196540832520 -25.598104476928711 2.472860336303711 0.000000000000000
4.641917705535889 -18.003395080566406 1.767302036285400 0.000000000000000
4.648947715759277 -7.904644966125488 -0.831343770027161 1.000000000000000
4.658515930175781 -20.040958404541016 3.049300432205200 0.000000000000000
4.662848472595215 -23.364986419677734 2.076100349426270 0.000000000000000
4.677031517028809 -28.141901016235352 2.485834121704102 0.000000000000000
4.690881252288818 -22.779520034790039 1.650798320770264 0.000000000000000
4.692472457885742 -14.960880279541016 -0.123149171471596 0.000000000000000
4.693054199218750 -18.845228195190430 2.584388256072998 0.000000000000000
4.696774959564209 -15.035228729248047 0.087975308299065 0.000000000000000
4.703052997589111 -15.462101936340332 -0.282100707292557 0.000000000000000
4.715552806854248 -14.372863769531250 2.012952566146851 0.000000000000000
4.721518039703369 -16.511554718017578 1.152695775032043 0.000000000000000
4.722990036010742 -23.774429321289062 1.720466494560242 0.000000000000000
4.731869220733643 -15.463729858398438 -0.127013295888901 0.000000000000000
4.751056671142578 -13.169154167175293 -0.029321508482099 0.000000000000000
4.755708217620850 -13.774086952209473 -0.030519500374794 0.000000000000000
4.762484073638916 -15.742320060729980 0.186592653393745 0.000000000000000
4.766237735748291 -16.360725402832031 2.912844419479370 0.000000000000000
4.767733573913574 -14.896179199218750 0.327623248100281 0.000000000000000
4.768564224243164 -20.210250854492188 3.077447891235352 0.000000000000000
4.769276618957520 -20.563013076782227 2.006525516510010 0.000000000000000
4.770116806030273 -16.589462280273438 2.950586318969727 0.000000000000000
4.771637439727783 -8.846719741821289 -1.067100286483765 0.000000000000000
4.800493240356445 -26.478437423706055 3.988132953643799 0.000000000000000
4.801373481750488 -22.128683090209961 3.870538473129272 0.000000000000000
4.829938411712646 -23.454797744750977 0.225701242685318 0.000000000000000
4.833750247955322 -16.552656173706055 -0.003009645966813 0.000000000000000
4.845406532287598 -17.277429580688477 2.659341812133789 0.000000000000000
4.866587162017822 -21.829109191894531 2.738153457641602 0.000000000000000
4.877798557281494 -15.225418090820312 -0.371187061071396 0.000000000000000
4.878845214843750 -24.558967590332031 0.235992938280106 0.000000000000000
4.878919601440430 -15.176031112670898 -0.308866262435913 0.000000000000000
4.890241146087646 -16.178888320922852 2.069291591644287 0.000000000000000
4.897994041442871 -24.465383529663086 2.657668828964233 0.000000000000000
4.911082744598389 -20.665761947631836 -0.533964335918427 0.000000000000000
4.915446758270264 -17.486085891723633 1.429524898529053 0.000000000000000
4.922093391418457 -17.303205490112305 1.805120706558228 0.000000000000000
4.923665523529053 -16.351276397705078 2.090679645538330 0.000000000000000
4.948931694030762 -15.597228050231934 0.122809290885925 0.000000000000000
4.950249195098877 -15.042112350463867 -0.093972161412239 0.000000000000000
4.961698055267334 -15.303247451782227 -0.126353576779366 0.000000000000000
4.961760520935059 -19.299602508544922 2.439693212509155 0.000000000000000
4.979604244232178 -19.808526992797852 1.607470035552979 0.000000000000000
4.984333992004395 -15.705000877380371 2.017279863357544 0.000000000000000
4.984703540802002 -18.831743240356445 0.782409429550171 0.000000000000000
4.988725662231445 -19.601558685302734 2.029562711715698 0.000000000000000
4.999887466430664 -15.435722351074219 0.589283645153046 0.000000000000000
5.002511978149414 -21.596019744873047 -0.429514706134796 0.000000000000000
5.022981166839600 -15.813373565673828 1.504147171974182 0.000000000000000
5.034558296203613 -18.009916305541992 2.289490938186646 0.000000000000000
5.036008834838867 -17.544157028198242 2.705081462860107 0.000000000000000
5.038061618804932 -14.732590675354004 0.236441835761070 0.000000000000000
5.038266658782959 -20.743299484252930 3.648806095123291 0.000000000000000
5.045597553253174 -15.945315361022949 1.025848388671875 0.000000000000000
5.046703338623047 -18.126544952392578 1.553567171096802 0.000000000000000
5.048197269439697 -27.100355148315430 2.222792863845825 0.000000000000000
5.058295726776123 -16.724338531494141 1.442645192146301 0.000000000000000
5.059330463409424 -20.249692916870117 2.555383205413818 0.000000000000000
5.059386253356934 -21.834615707397461 0.555593132972717 0.000000000000000
5.064866542816162 -16.104858398437500 0.223951295018196 0.000000000000000
5.096055030822754 -22.325725555419922 -0.047961611300707 0.000000000000000
5.098314285278320 -18.762319564819336 -0.227367237210274 0.000000000000000
5.107453823089600 -15.886895179748535 1.216683983802795 0.000000000000000
5.122708797454834 -20.012512207031250 2.529134035110474 0.000000000000000
5.127572059631348 -20.100139617919922 1.632576942443848 0.000000000000000
5.133533954620361 -19.155933380126953 0.072687916457653 0.000000000000000
5.155759811401367 -16.419900894165039 1.254787206649780 0.000000000000000
5.173132896423340 -19.660078048706055 2.309041738510132 0.000000000000000
5.179883956909180 -27.278024673461914 3.153658866882324 0.000000000000000
5.197152137756348 -19.989356994628906 2.748484849929810 0.000000000000000
5.197727203369141 -15.942029953002930 -0.035118792206049 0.000000000000000
5.198136329650879 -22.099891662597656 0.213976979255676 0.000000000000000
5.200582504272461 -27.607807159423828 2.670446872711182 0.000000000000000
5.201807498931885 -15.066136360168457 3.315288066864014 0.000000000000000
5.202280998229980 -16.637123107910156 0.130824476480484 0.000000000000000
5.203857421875000 -18.421951293945312 -0.444440335035324 0.000000000000000
5.208774566650391 -15.748955726623535 0.028951508924365 0.000000000000000
5.226741313934326 -27.010044097900391 3.124767541885376 0.000000000000000
5.255405902862549 -15.648643493652344 -0.383256673812866 0.000000000000000
5.261443614959717 -17.737323760986328 -0.500628590583801 0.000000000000000
5.265558719635010 -19.731206893920898 1.646679878234863 0.000000000000000
5.276045799255371 -24.060905456542969 1.653367161750793 0.000000000000000
5.289199352264404 -16.161310195922852 1.371161699295044 0.000000000000000
5.298007965087891 -19.909971237182617 1.303439259529114 0.000000000000000
5.314047336578369 -28.280685424804688 2.098001718521118 0.000000000000000
5.324820041656494 -32.297531127929688 3.717940568923950 0.000000000000000
5.327030658721924 -16.445682525634766 2.116442441940308 0.000000000000000
5.333316802978516 -15.475032806396484 -0.348582953214645 0.000000000000000
5.351175308227539 -17.771017074584961 0.959654927253723 0.000000000000000
5.364573955535889 -16.888778686523438 0.745799422264099 0.000000000000000
5.370637416839600 -19.269216537475586 2.661951541900635 0.000000000000000
5.382105827331543 -23.601690292358398 -0.143652319908142 0.000000000000000
5.413432121276855 -16.639085769653320 1.275729417800903 0.000000000000000
5.417888164520264 -16.054418563842773 -0.035487402230501 0.000000000000000
5.461414813995361 -21.310939788818359 1.519072175025940 0.000000000000000
5.470094203948975 -26.762027740478516 2.202538728713989 0.000000000000000
5.472740650177002 -16.121250152587891 -0.493390053510666 0.000000000000000
5.511578083038330 -24.775146484375000 2.882803440093994 0.000000000000000
5.512831211090088 -21.828147888183594 2.995948791503906 0.000000000000000
5.513698577880859 -25.403120040893555 1.845076441764832 0.000000000000000
5.531403541564941 -21.462511062622070 -0.429437220096588 0.000000000000000
5.539803028106689 -19.540794372558594 1.676996827125549 0.000000000000000
5.555684566497803 -26.315799713134766 2.864842414855957 0.000000000000000
5.561466693878174 -26.514865875244141 1.922957658767700 0.000000000000000
5.569355487823486 -16.418085098266602 1.163679122924805 0.000000000000000
5.569930553436279 -18.490472793579102 1.631788134574890 0.000000000000000
5.628629684448242 -27.129526138305664 2.951270818710327 0.000000000000000
5.635356903076172 -17.038745880126953 1.911589622497559 0.000000000000000
5.652575492858887 -22.913009643554688 -0.049427684396505 0.000000000000000
5.674995422363281 -20.924980163574219 2.885144233703613 0.000000000000000
5.678943157196045 -17.455179214477539 0.772543311119080 0.000000000000000
5.685451030731201 -19.277746200561523 1.465372681617737 0.000000000000000
5.690270900726318 -17.183649063110352 0.622622072696686 0.000000000000000
5.727601051330566 -21.498727798461914 -0.388350933790207 0.000000000000000
5.730833530426025 -17.510736465454102 0.350554794073105 0.000000000000000
5.736391544342041 -19.050306320190430 1.335391283035278 0.000000000000000
5.768627643585205 -17.648097991943359 1.977681875228882 0.000000000000000
5.772784709930420 -17.068685531616211 0.446655243635178 0.000000000000000
5.782618999481201 -16.130712509155273 0.062806583940983 0.000000000000000
5.786078929901123 -17.575706481933594 3.162882804870605 0.000000000000000
5.808560371398926 -28.417947769165039 3.294503688812256 0.000000000000000
5.817097187042236 -16.483642578125000 -0.036609999835491 0.000000000000000
5.829446315765381 -32.522449493408203 2.664200782775879 0.000000000000000
5.850385665893555 -25.655195236206055 1.867732763290405 0.000000000000000
5.870541572570801 -27.807191848754883 2.236711978912354 0.000000000000000
5.884586334228516 -17.881242752075195 1.336158275604248 0.000000000000000
5.886324882507324 -25.159664154052734 3.163483619689941 0.000000000000000
5.889433860778809 -20.111618041992188 0.398720860481262 0.000000000000000
5.900633335113525 -26.708667755126953 2.600042343139648 0.000000000000000
5.905308246612549 -21.090734481811523 1.596843242645264 0.000000000000000
5.911563396453857 -18.301465988159180 1.513633012771606 0.000000000000000
5.921339511871338 -27.980152130126953 2.195617198944092 0.000000000000000
5.936039447784424 -18.160264968872070 1.208730936050415 0.000000000000000
5.943668365478516 -16.399526596069336 1.406525611877441 0.000000000000000
5.948291301727295 -25.518890380859375 2.062218904495239 0.000000000000000
5.961025238037109 -18.236703872680664 -0.261209100484848 0.000000000000000
5.975541591644287 -23.185819625854492 0.639527142047882 0.000000000000000
5.978396892547607 -23.914026260375977 1.749636530876160 0.000000000000000
5.981270313262939 -21.652853012084961 -0.435248792171478 0.000000000000000
5.981857776641846 -13.932535171508789 2.247099876403809 0.000000000000000
6.012849807739258 -25.024166107177734 2.025500297546387 0.000000000000000
6.021055698394775 -24.056112289428711 1.808010458946228 0.000000000000000
6.050146579742432 -23.196994781494141 2.935020446777344 0.000000000000000
6.072078227996826 -20.211084365844727 1.701654911041260 0.000000000000000
6.089550495147705 -22.892641067504883 0.587213873863220 0.000000000000000
6.091359615325928 -18.729476928710938 0.185627683997154 0.000000000000000
6.097993850708008 -23.614896774291992 2.447296380996704 0.000000000000000
6.102197647094727 -24.735576629638672 2.421760320663452 0.000000000000000
6.134328842163086 -18.067005157470703 1.612253904342651 0.000000000000000
6.146339893341064 -18.301511764526367 1.333080172538757 0.000000000000000
6.161252021789551 -18.504144668579102 1.384302854537964 0.000000000000000
6.164001941680908 -19.440811157226562 -0.238499417901039 0.000000000000000
6.189765453338623 -25.472572326660156 2.491786241531372 0.000000000000000
6.206118106842041 -18.326757431030273 -0.337738990783691 0.000000000000000
6.230673789978027 -26.686084747314453 3.112579107284546 0.000000000000000
6.233926773071289 -20.413192749023438 0.078229673206806 0.000000000000000
6.243280410766602 -18.433320999145508 2.073007106781006 0.000000000000000
6.298624515533447 -18.800609588623047 1.598777532577515 0.000000000000000
6.311409950256348 -17.226238250732422 2.083780288696289 0.000000000000000
6.330736160278320 -21.465723037719727 -0.433621555566788 0.000000000000000
6.340668201446533 -20.840820312500000 -0.589458525180817 0.000000000000000
6.351171970367432 -18.961853027343750 -0.656388580799103 0.000000000000000
6.353664875030518 -23.914094924926758 2.482839822769165 0.000000000000000
6.384164333343506 -20.349487304687500 1.760928988456726 0.000000000000000
6.414150714874268 -18.693737030029297 1.326551198959351 0.000000000000000
6.458566188812256 -19.503770828247070 1.656646132469177 0.000000000000000
6.508709907531738 -17.775302886962891 1.489781379699707 0.000000000000000
6.525426387786865 -17.983125686645508 1.320956230163574 0.000000000000000
6.526722908020020 -18.206403732299805 -0.523350000381470 0.000000000000000
6.595042705535889 -18.207681655883789 1.225147008895874 0.000000000000000
6.606695652008057 -19.606494903564453 0.870772123336792 1.000000000000000
6.607707977294922 -18.192056655883789 1.261803150177002 0.000000000000000
6.627679824829102 -23.356365203857422 1.021815896034241 0.000000000000000
6.638337135314941 -21.284450531005859 1.797780990600586 0.000000000000000
6.729479312896729 -18.611289978027344 -0.611570835113525 0.000000000000000
6.746653556823730 -24.537044525146484 3.386403560638428 0.000000000000000
6.763044834136963 -21.190139770507812 1.750579476356506 0.000000000000000
6.764782905578613 -18.320985794067383 1.701784133911133 0.000000000000000
6.771788120269775 -25.041748046875000 2.946454524993896 0.000000000000000
6.788894176483154 -18.233354568481445 1.763806819915771 1.000000000000000
6.792129993438721 -19.554870605468750 0.791628956794739 0.000000000000000
6.796209335327148 -19.045989990234375 0.268253445625305 0.000000000000000
6.800831794738770 -9.343727111816406 -1.249333739280701 0.000000000000000
6.827402591705322 -17.510482788085938 1.189031600952148 0.000000000000000
6.833965301513672 -22.243158340454102 0.353356957435608 0.000000000000000
6.842651844024658 -18.087545394897461 -0.820670962333679 0.000000000000000
6.846342086791992 -17.987178802490234 1.143427014350891 0.000000000000000
6.856316566467285 -18.463693618774414 0.980505526065826 1.000000000000000
6.860495090484619 -18.502639770507812 0.754638373851776 0.000000000000000
6.864268779754639 -22.790174484252930 1.551687240600586 0.000000000000000
6.865190505981445 -19.800897598266602 2.380366802215576 0.000000000000000
6.902907371520996 -20.845605850219727 2.494126081466675 0.000000000000000
6.924754619598389 -19.288099288940430 1.257025480270386 0.000000000000000
6.948752880096436 -13.338197708129883 1.841314673423767 0.000000000000000
6.952987670898438 -18.859060287475586 -0.042097307741642 0.000000000000000
6.957087039947510 -19.406909942626953 1.344032406806946 0.000000000000000
6.980022907257080 -25.458801269531250 2.128595829010010 0.000000000000000
6.991283893585205 -17.719375610351562 0.655210733413696 0.000000000000000
6.995048046112061 -18.708106994628906 0.341657400131226 0.000000000000000
6.999406337738037 -18.480461120605469 0.755708336830139 0.000000000000000
7.002531528472900 -19.878120422363281 -1.097141385078430 0.000000000000000
7.006320476531982 -19.902173995971680 0.158352240920067 0.000000000000000
7.017652511596680 -18.737653732299805 -0.541418910026550 0.000000000000000
7.026748657226562 -24.479381561279297 1.807693481445312 0.000000000000000
7.028822422027588 -19.618865966796875 0.036372642964125 0.000000000000000
7.049863815307617 -17.443763732910156 2.788350582122803 0.000000000000000
7.050250530242920 -19.452762603759766 2.350121498107910 0.000000000000000
7.051402568817139 -18.557094573974609 -0.117803446948528 0.000000000000000
7.073093891143799 -18.491601943969727 -0.840174436569214 0.000000000000000
7.083673954010010 -20.336967468261719 -0.169141620397568 0.000000000000000
7.084018230438232 -24.541543960571289 2.720795392990112 0.000000000000000
7.084508419036865 -18.779329299926758 2.013987541198730 1.000000000000000
7.088760852813721 -7.562505245208740 -1.140691280364990 0.000000000000000
7.092420578002930 -17.614511489868164 0.653148114681244 1.000000000000000
7.102127552032471 -24.420223236083984 1.805144548416138 0.000000000000000
7.113594532012939 -18.537345886230469 -0.155947059392929 0.000000000000000
7.115462779998779 -18.596538543701172 2.437748908996582 1.000000000000000
7.115617752075195 -24.977922439575195 2.044016599655151 0.000000000000000
7.135934829711914 -21.248157501220703 2.982757806777954 0.000000000000000
7.143547534942627 -23.510715484619141 1.933859944343567 0.000000000000000
7.154811382293701 -21.007499694824219 1.832353591918945 0.000000000000000
7.155340671539307 -24.738391876220703 2.076514005661011 0.000000000000000
7.156227588653564 -18.575710296630859 -0.615153729915619 0.000000000000000
7.157556533813477 -13.703953742980957 1.892840385437012 0.000000000000000
7.158326625823975 -19.663070678710938 -1.129623413085938 0.000000000000000
7.167771816253662 -19.900533676147461 1.746446490287781 0.000000000000000
7.172881603240967 -18.610229492187500 0.877779543399811 0.000000000000000
7.179038524627686 -18.703981399536133 2.452817678451538 1.000000000000000
7.180766582489014 -21.347080230712891 -0.263383030891418 0.000000000000000
7.190949916839600 -19.428195953369141 0.991450846195221 1.000000000000000
7.194904804229736 -18.706272125244141 0.265865892171860 0.000000000000000
7.196209430694580 -19.652864456176758 0.358008235692978 1.000000000000000
7.201601505279541 -21.007825851440430 1.790708065032959 0.000000000000000
7.212677955627441 -23.443714141845703 1.930407881736755 0.000000000000000
7.215044975280762 -20.809963226318359 1.435889720916748 0.000000000000000
7.218773841857910 -19.809749603271484 -0.408515542745590 0.000000000000000
7.223834514617920 -25.099880218505859 3.870852470397949 0.000000000000000
7.227371215820312 -19.839792251586914 -0.449674516916275 0.000000000000000
7.237783432006836 -24.123254776000977 1.593373060226440 0.000000000000000
7.244536399841309 -19.065364837646484 -0.434344738721848 0.000000000000000
7.254124641418457 -18.958936691284180 -0.822403371334076 0.000000000000000
7.254242420196533 -21.653009414672852 0.434483975172043 0.000000000000000
7.258688449859619 -19.688234329223633 0.923506438732147 0.000000000000000
7.260758876800537 -18.909006118774414 0.190905466675758 0.000000000000000
7.282480239868164 -18.841648101806641 0.694812119007111 0.000000000000000
7.285334587097168 -20.220294952392578 -1.160241127014160 0.000000000000000
7.297424793243408 -20.468675613403320 0.246536448597908 0.000000000000000
7.300134658813477 -19.139209747314453 0.901522397994995 1.000000000000000
7.315475940704346 -19.358823776245117 2.204344034194946 0.000000000000000
7.315844535827637 -18.958465576171875 2.164519309997559 1.000000000000000
7.326413154602051 -17.604042053222656 2.825880527496338 0.000000000000000
7.326911449432373 -19.265939712524414 -0.399371981620789 0.000000000000000
7.330336093902588 -19.776151657104492 -0.206146642565727 0.000000000000000
7.338222026824951 -18.861436843872070 0.929651200771332 0.000000000000000
7.345082283020020 -24.794982910156250 2.035228967666626 0.000000000000000
7.346017837524414 -19.316181182861328 1.187968611717224 0.000000000000000
7.347387313842773 -19.118654251098633 0.862025797367096 1.000000000000000
7.349990367889404 -25.187221527099609 2.494057178497314 1.000000000000000
7.359137058258057 -18.974948883056641 2.491705179214478 1.000000000000000
7.362757682800293 -19.806318283081055 -0.247105777263641 1.000000000000000
7.368694305419922 -21.233955383300781 2.751764059066772 0.000000000000000
7.372578620910645 -19.386020660400391 0.553979218006134 0.000000000000000
7.386633872985840 -19.398517608642578 3.076275110244751 0.000000000000000
7.406861305236816 -18.766904830932617 0.112683460116386 1.000000000000000
7.408644199371338 -21.420274734497070 1.740021109580994 0.000000000000000
7.422480106353760 -17.462533950805664 1.127295613288879 0.000000000000000
7.423336505889893 -18.252222061157227 1.588811516761780 0.000000000000000
7.424985408782959 -5.319885253906250 -1.340986728668213 1.000000000000000
7.440681457519531 -18.791101455688477 -0.236347824335098 1.000000000000000
7.443832874298096 -19.556949615478516 -1.331200718879700 0.000000000000000
7.454926490783691 -19.938041687011719 1.675258755683899 0.000000000000000
7.462527275085449 -18.842422485351562 -0.743134379386902 0.000000000000000
7.465043544769287 -20.645593643188477 2.202886343002319 0.000000000000000
7.472496986389160 -17.291097640991211 0.937745094299316 1.000000000000000
7.480196475982666 -17.124750137329102 0.176127657294273 0.000000000000000
7.512046813964844 -17.458709716796875 0.909610748291016 1.000000000000000
7.535054206848145 -18.261505126953125 1.790892124176025 1.000000000000000
7.536065101623535 -18.331064224243164 0.110695198178291 1.000000000000000
7.553505897521973 -15.906211853027344 3.009894371032715 0.000000000000000
7.605499744415283 -15.996964454650879 3.684286832809448 0.000000000000000
7.626517295837402 -18.325136184692383 1.729562759399414 0.000000000000000
7.629428863525391 -15.922418594360352 3.017982006072998 0.000000000000000
7.636535644531250 -20.516485214233398 -0.129908978939056 0.000000000000000
7.667219638824463 -18.337173461914062 2.117068529129028 1.000000000000000
7.674971580505371 -15.450294494628906 2.556721210479736 0.000000000000000
7.681965827941895 -19.875219345092773 0.405416935682297 1.000000000000000
7.686701297760010 -16.023281097412109 3.696505308151245 0.000000000000000
7.687973499298096 -19.890764236450195 -0.904959797859192 0.000000000000000
7.688916206359863 -19.682466506958008 -0.206537604331970 1.000000000000000
7.700068950653076 -18.351802825927734 1.297453045845032 0.000000000000000
7.703896999359131 -19.556474685668945 -0.609147846698761 0.000000000000000
7.705757141113281 -18.401355743408203 1.300575733184814 1.000000000000000
7.707871913909912 -20.649684906005859 -0.342405170202255 0.000000000000000
7.710417270660400 -16.870565414428711 0.923425316810608 1.000000000000000
7.732161521911621 -19.724067687988281 0.525161921977997 0.000000000000000
7.774929523468018 -20.115741729736328 1.738947987556458 0.000000000000000
7.786408424377441 -20.392719268798828 -0.381020933389664 0.000000000000000
7.786481857299805 -20.474369049072266 -1.435729742050171 0.000000000000000
7.791406631469727 -19.781660079956055 -0.371107995510101 1.000000000000000
7.797831535339355 -20.097764968872070 -0.790478050708771 1.000000000000000
7.798515796661377 -16.688974380493164 0.739869773387909 0.000000000000000
7.808689594268799 -18.112421035766602 1.590418815612793 0.000000000000000
7.823207855224609 -19.429470062255859 2.379012823104858 0.000000000000000
7.830162525177002 -17.966964721679688 -0.191564291715622 1.000000000000000
7.830998420715332 -19.772789001464844 0.200443223118782 0.000000000000000
7.834888935089111 -19.766487121582031 0.241227284073830 0.000000000000000
7.835208892822266 -17.978544235229492 0.109533511102200 0.000000000000000
7.835962772369385 -18.926095962524414 2.181889772415161 1.000000000000000
7.836995601654053 -20.192434310913086 -0.419673770666122 0.000000000000000
7.844130039215088 -18.351238250732422 0.763198137283325 1.000000000000000
7.844563961029053 -17.296451568603516 1.348052740097046 0.000000000000000
7.852213382720947 -20.528499603271484 0.756001770496368 0.000000000000000
7.856181144714355 -19.407655715942383 1.566944956779480 1.000000000000000
7.863989353179932 -16.786294937133789 0.922828733921051 1.000000000000000
7.871709823608398 -17.985103607177734 -1.248921275138855 0.000000000000000
7.891361713409424 -13.821573257446289 2.117953300476074 0.000000000000000
7.893907546997070 -19.532217025756836 0.198558285832405 0.000000000000000
7.903179645538330 -17.922294616699219 -1.321601986885071 0.000000000000000
7.908675670623779 -18.944366455078125 2.059914350509644 1.000000000000000
7.923494815826416 -21.470649719238281 3.391760349273682 0.000000000000000
7.930542469024658 -15.716160774230957 2.608911275863647 0.000000000000000
7.958434104919434 -20.061824798583984 2.051569223403931 0.000000000000000
7.964353561401367 -21.390359878540039 3.901540517807007 0.000000000000000
7.965439796447754 -17.937833786010742 0.448823332786560 1.000000000000000
7.968649864196777 -17.941684722900391 0.109645210206509 1.000000000000000
7.969598293304443 -19.988119125366211 -0.871789634227753 1.000000000000000
7.987590312957764 -17.930313110351562 0.524288415908813 0.000000000000000
7.994088649749756 -18.227458953857422 2.120034217834473 1.000000000000000
7.996137619018555 -16.231698989868164 2.681625366210938 0.000000000000000
7.998993873596191 -18.895772933959961 2.730545043945312 1.000000000000000
8.004216194152832 -21.736085891723633 3.432808637619019 0.000000000000000
8.007906913757324 -20.499036788940430 0.122915230691433 0.000000000000000
8.008787155151367 -13.914219856262207 2.136420726776123 0.000000000000000
8.014008522033691 -17.197069168090820 0.762022495269775 0.000000000000000
8.017050743103027 -18.395795822143555 1.346910238265991 0.000000000000000
8.018249511718750 -19.703144073486328 1.797492980957031 1.000000000000000
8.024775505065918 -20.057277679443359 0.203609883785248 1.000000000000000
8.030925750732422 -17.987880706787109 0.904872775077820 1.000000000000000
8.047135353088379 -19.320596694946289 1.203119516372681 0.000000000000000
8.056925773620605 -17.435188293457031 0.217903181910515 0.000000000000000
8.062627792358398 -18.184072494506836 0.990250825881958 1.000000000000000
8.065339088439941 -17.432611465454102 -0.040229108184576 1.000000000000000
8.070425033569336 -9.312811851501465 -0.144109949469566 0.000000000000000
8.071341514587402 -18.078405380249023 -1.221325397491455 1.000000000000000
8.089106559753418 -18.270462036132812 0.341794222593307 0.000000000000000
8.093762397766113 -18.012796401977539 -0.117186300456524 1.000000000000000
8.095310211181641 -21.976362228393555 2.123140811920166 0.000000000000000
8.119693756103516 -17.233360290527344 1.131802916526794 0.000000000000000
8.138024330139160 -17.450454711914062 0.218447729945183 0.000000000000000
8.155229568481445 -20.045755386352539 -0.544016361236572 0.000000000000000
8.162630081176758 -25.543043136596680 3.045768022537231 0.000000000000000
8.165550231933594 -18.443122863769531 2.148420095443726 1.000000000000000
8.167269706726074 -18.171302795410156 0.838477671146393 1.000000000000000
8.175074577331543 -18.020177841186523 -0.079433910548687 0.000000000000000
8.204828262329102 -20.519762039184570 -0.173571214079857 0.000000000000000
8.205209732055664 -20.683902740478516 -0.046604443341494 1.000000000000000
8.210322380065918 -20.261167526245117 0.331978172063828 0.000000000000000
8.226780891418457 -20.284490585327148 0.542607843875885 0.000000000000000
8.240064620971680 -19.567916870117188 3.146643400192261 0.000000000000000
8.240239143371582 -15.913345336914062 2.655823469161987 0.000000000000000
8.242380142211914 -19.939208984375000 2.164946794509888 1.000000000000000
8.250696182250977 -20.021656036376953 0.204099968075752 1.000000000000000
8.255125999450684 -18.795003890991211 2.331613063812256 0.000000000000000
8.261639595031738 -20.152967453002930 1.714174509048462 1.000000000000000
8.265803337097168 -20.195262908935547 -0.338987976312637 0.000000000000000
8.275857925415039 -20.342264175415039 1.813263058662415 0.000000000000000
8.299826622009277 -28.753532409667969 2.355342388153076 0.000000000000000
8.304987907409668 -18.993099212646484 1.711557149887085 1.000000000000000
8.305715560913086 -19.808815002441406 2.629755258560181 1.000000000000000
8.305783271789551 -20.092588424682617 -0.671863079071045 0.000000000000000
8.309850692749023 -18.713430404663086 2.724740982055664 1.000000000000000
8.329524040222168 -19.727384567260742 -1.279715299606323 1.000000000000000
8.339808464050293 -18.777360916137695 1.696416378021240 1.000000000000000
8.342166900634766 -19.166456222534180 -0.605787456035614 1.000000000000000
8.347339630126953 -19.908086776733398 0.452188760042191 1.000000000000000
8.348716735839844 -18.525693893432617 -0.003546509193256 1.000000000000000
8.387915611267090 -19.644292831420898 0.406406134366989 0.000000000000000
8.389482498168945 -20.118791580200195 3.230499267578125 0.000000000000000
8.393156051635742 -16.437725067138672 0.847790539264679 1.000000000000000
8.406005859375000 -19.352806091308594 0.928606688976288 1.000000000000000
8.407207489013672 -16.416402816772461 0.386345744132996 0.000000000000000
8.430354118347168 -20.106075286865234 -1.218918442726135 0.000000000000000
8.433138847351074 -16.102344512939453 -1.191383600234985 0.000000000000000
8.435034751892090 -18.462856292724609 -1.095771431922913 0.000000000000000
8.435691833496094 -18.962903976440430 -0.242709040641785 1.000000000000000
8.441747665405273 -20.458911895751953 0.591146111488342 0.000000000000000
8.444083213806152 -20.644199371337891 3.305558919906616 0.000000000000000
8.448279380798340 -18.822868347167969 0.075620070099831 1.000000000000000
8.449441909790039 -18.569805145263672 0.505733489990234 1.000000000000000
8.459794998168945 -18.790554046630859 1.958832383155823 1.000000000000000
8.462199211120605 -19.294805526733398 0.684202551841736 1.000000000000000
8.480096817016602 -19.649019241333008 -1.155282020568848 1.000000000000000
8.483463287353516 -19.928705215454102 2.173333406448364 1.000000000000000
8.493447303771973 -18.604457855224609 0.428398162126541 0.000000000000000
8.495227813720703 -19.094936370849609 0.156851276755333 1.000000000000000
8.523077964782715 -17.708066940307617 0.373914957046509 0.000000000000000
8.524117469787598 -21.157438278198242 0.521615386009216 0.000000000000000
8.530901908874512 -19.153522491455078 2.567049264907837 0.000000000000000
8.536126136779785 -21.121284484863281 0.564712643623352 1.000000000000000
8.548147201538086 -17.718980789184570 1.358430147171021 1.000000000000000
8.557970046997070 -18.915061950683594 2.762731075286865 1.000000000000000
8.573544502258301 -19.024585723876953 2.093860149383545 1.000000000000000
8.578571319580078 -18.914863586425781 1.809773325920105 1.000000000000000
8.579169273376465 -19.685623168945312 0.779904365539551 0.000000000000000
8.583311080932617 -17.753845214843750 -0.079160951077938 1.000000000000000
8.588522911071777 -20.572868347167969 -1.375253200531006 1.000000000000000
8.593498229980469 -20.552492141723633 0.381063610315323 1.000000000000000
8.597949028015137 -19.257915496826172 2.116224527359009 1.000000000000000
8.604312896728516 -19.372900009155273 2.595242500305176 0.000000000000000
8.617274284362793 -17.761562347412109 0.641099035739899 1.000000000000000
8.629179000854492 -19.937038421630859 -1.172747015953064 0.000000000000000
8.632026672363281 -20.103193283081055 0.290218800306320 1.000000000000000
8.638875007629395 -17.666122436523438 1.973252654075623 1.000000000000000
8.646089553833008 -19.279806137084961 2.811801910400391 0.000000000000000
8.649495124816895 -12.544712066650391 2.258241415023804 0.000000000000000
8.650057792663574 -17.590085983276367 2.905045270919800 0.000000000000000
8.650938987731934 -17.413465499877930 -0.040723383426666 1.000000000000000
8.653237342834473 -19.564918518066406 -0.990163147449493 0.000000000000000
8.654556274414062 -18.536096572875977 -0.671479403972626 0.000000000000000
8.663463592529297 -17.119548797607422 -1.257571458816528 0.000000000000000
8.665620803833008 -18.348003387451172 1.283739924430847 0.000000000000000
8.666195869445801 -17.704769134521484 0.034403916448355 0.000000000000000
8.666839599609375 -17.706085205078125 0.943455755710602 1.000000000000000
8.672823905944824 -19.588876724243164 -0.950330495834351 0.000000000000000
8.673524856567383 -17.894996643066406 -1.226743698120117 1.000000000000000
8.685667991638184 -18.243461608886719 -0.313886940479279 1.000000000000000
8.689726829528809 -18.611423492431641 0.903984606266022 0.000000000000000
8.694729804992676 -21.055353164672852 -0.047710280865431 0.000000000000000
8.700658798217773 -18.952302932739258 -0.644434988498688 1.000000000000000
8.703879356384277 -18.429010391235352 0.348635554313660 0.000000000000000
8.708397865295410 -18.120605468750000 0.884814441204071 0.000000000000000
8.714096069335938 -17.190546035766602 -0.854960680007935 0.000000000000000
8.721239089965820 -20.116973876953125 0.290855497121811 1.000000000000000
8.726654052734375 -5.463824748992920 -1.113050580024719 1.000000000000000
8.728808403015137 -19.189996719360352 -0.651477336883545 1.000000000000000
8.729233741760254 -18.669683456420898 0.312968105077744 1.000000000000000
8.755721092224121 -21.848833084106445 0.312237232923508 1.000000000000000
8.755775451660156 -18.707725524902344 -0.598603308200836 0.000000000000000
8.758247375488281 -18.695158004760742 1.664683461189270 0.000000000000000
8.762049674987793 -20.494745254516602 -1.246159315109253 0.000000000000000
8.762982368469238 -19.763620376586914 0.743626356124878 1.000000000000000
8.763664245605469 -19.139736175537109 3.598259449005127 0.000000000000000
8.765015602111816 -17.749475479125977 -0.573690474033356 1.000000000000000
8.768999099731445 -17.150144577026367 0.921848416328430 1.000000000000000
8.775727272033691 -17.771167755126953 2.111137390136719 0.000000000000000
8.776976585388184 -17.773696899414062 1.560080766677856 0.000000000000000
8.786115646362305 -16.402528762817383 -0.682305812835693 0.000000000000000
8.790301322937012 -20.403011322021484 -0.729218542575836 0.000000000000000
8.790884971618652 -20.459367752075195 -1.116360902786255 0.000000000000000
8.793621063232422 -19.205160140991211 0.239639058709145 1.000000000000000
8.794968605041504 -17.099939346313477 -1.223272562026978 0.000000000000000
8.797793388366699 -18.036544799804688 -0.080557905137539 0.000000000000000
8.798111915588379 -18.279495239257812 -0.237236499786377 1.000000000000000
8.804373741149902 -16.432481765747070 1.359207391738892 0.000000000000000
8.807883262634277 -19.213272094726562 -0.044267103075981 1.000000000000000
8.809518814086914 -19.142702102661133 2.393458127975464 1.000000000000000
8.809633255004883 -17.701875686645508 0.870217084884644 1.000000000000000
8.810485839843750 -20.518806457519531 0.982775449752808 1.000000000000000
8.811161041259766 -20.304000854492188 -0.683970928192139 0.000000000000000
8.813852310180664 -20.682792663574219 1.769409775733948 0.000000000000000
8.815114974975586 -19.834465026855469 1.080544829368591 1.000000000000000
8.823218345642090 -16.881565093994141 -1.028282880783081 1.000000000000000
8.824224472045898 -17.230693817138672 -1.380865097045898 1.000000000000000
8.825399398803711 -19.786844253540039 1.287185549736023 1.000000000000000
8.826455116271973 -20.936925888061523 0.345036238431931 0.000000000000000
8.829945564270020 -16.579475402832031 -1.448665022850037 0.000000000000000
8.832646369934082 -17.799488067626953 1.801365375518799 1.000000000000000
8.846008300781250 -5.553824901580811 -1.149442315101624 0.000000000000000
8.853236198425293 -17.532512664794922 0.524608790874481 0.000000000000000
8.855055809020996 -17.452758789062500 -0.228863999247551 0.000000000000000
8.857448577880859 -18.772830963134766 -0.322461038827896 0.000000000000000
8.863580703735352 -18.287115097045898 2.039147615432739 1.000000000000000
8.872084617614746 -18.433183670043945 -1.498691558837891 1.000000000000000
8.883256912231445 -14.554251670837402 3.546624898910522 0.000000000000000
8.885043144226074 -17.499748229980469 -1.399932980537415 1.000000000000000
8.886724472045898 -18.767784118652344 -0.522002398967743 1.000000000000000
8.887155532836914 -16.964204788208008 -1.476961612701416 0.000000000000000
8.888640403747559 -19.010614395141602 -0.648512125015259 1.000000000000000
8.888654708862305 -19.541414260864258 -0.003746872767806 0.000000000000000
8.893323898315430 -19.957857131958008 1.804047107696533 0.000000000000000
8.894964218139648 -19.073568344116211 1.907901644706726 1.000000000000000
8.906873703002930 -17.348770141601562 -1.015209317207336 1.000000000000000
8.909482955932617 -20.144289016723633 1.351063609123230 1.000000000000000
8.909794807434082 -17.472883224487305 1.165251731872559 0.000000000000000
8.914023399353027 -18.437896728515625 -0.711586177349091 1.000000000000000
8.915009498596191 -18.947074890136719 2.563646554946899 1.000000000000000
8.917240142822266 -19.339437484741211 2.833962917327881 0.000000000000000
8.917849540710449 -17.634450912475586 1.721923589706421 1.000000000000000
8.919233322143555 -18.081642150878906 0.499786019325256 0.000000000000000
8.920723915100098 -17.570022583007812 1.626966714859009 0.000000000000000
8.921152114868164 -19.235675811767578 1.014778971672058 1.000000000000000
8.921736717224121 -12.842438697814941 3.252566337585449 0.000000000000000
8.923731803894043 -18.685483932495117 -0.202393546700478 1.000000000000000
8.925278663635254 -17.868522644042969 1.302137017250061 1.000000000000000
8.926015853881836 -19.806713104248047 0.997929632663727 1.000000000000000
8.926185607910156 -18.548904418945312 -0.675678670406342 0.000000000000000
8.927180290222168 -19.473501205444336 1.272714853286743 1.000000000000000
8.927937507629395 -16.778289794921875 -0.623844683170319 0.000000000000000
8.934085845947266 -19.460767745971680 0.325175851583481 1.000000000000000
8.939653396606445 -25.557664871215820 2.716866493225098 0.000000000000000
8.944891929626465 -18.005161285400391 -0.969212770462036 0.000000000000000
8.946736335754395 -16.268672943115234 -1.181116938591003 0.000000000000000
8.949567794799805 -18.739583969116211 -0.841348230838776 0.000000000000000
8.949985504150391 -17.761077880859375 1.373309493064880 1.000000000000000
8.954442024230957 -18.910795211791992 0.116861067712307 1.000000000000000
8.954597473144531 -20.945123672485352 0.477152109146118 0.000000000000000
8.956434249877930 -32.869911193847656 3.088467359542847 0.000000000000000
8.957671165466309 -19.750738143920898 3.214080095291138 0.000000000000000
8.959168434143066 -18.799329757690430 0.676282882690430 1.000000000000000
8.960505485534668 -19.139064788818359 -0.368874073028564 1.000000000000000
8.960528373718262 -21.974647521972656 0.178104996681213 1.000000000000000
8.965847969055176 -19.557851791381836 2.045134544372559 0.000000000000000
8.971739768981934 -19.344753265380859 0.037217382341623 1.000000000000000
8.974886894226074 -18.117887496948242 1.006559491157532 1.000000000000000
8.977166175842285 -19.056724548339844 -1.461948156356812 1.000000000000000
8.985278129577637 -18.585279464721680 1.871426343917847 1.000000000000000
8.986806869506836 -19.096206665039062 1.213220119476318 0.000000000000000
8.986915588378906 -17.131351470947266 -1.156110525131226 0.000000000000000
8.989839553833008 -18.971855163574219 1.449635028839111 0.000000000000000
8.990495681762695 -17.122917175292969 -1.118505835533142 0.000000000000000
9.003262519836426 -18.482345581054688 -0.240417137742043 1.000000000000000
9.008956909179688 -17.772228240966797 0.953590214252472 1.000000000000000
9.012524604797363 -18.517768859863281 1.025254726409912 1.000000000000000
9.015546798706055 -19.107910156250000 -0.003687531687319 0.000000000000000
9.016141891479492 -21.228334426879883 -0.446871966123581 0.000000000000000
9.017500877380371 -18.713575363159180 2.543230772018433 1.000000000000000
9.022647857666016 -18.782058715820312 1.278086185455322 1.000000000000000
9.027069091796875 -19.012678146362305 2.576771020889282 0.000000000000000
9.031386375427246 -17.955350875854492 2.282858848571777 0.000000000000000
9.038715362548828 -18.448680877685547 2.333418607711792 0.000000000000000
9.040193557739258 -20.612701416015625 0.039283853024244 1.000000000000000
9.048899650573730 -19.055219650268555 0.239321410655975 1.000000000000000
9.057190895080566 -20.117465972900391 1.651128292083740 1.000000000000000
9.057303428649902 -16.558591842651367 -0.619514286518097 0.000000000000000
9.070810317993164 -18.394594192504883 -0.318608909845352 0.000000000000000
9.074333190917969 -20.189424514770508 3.783597707748413 0.000000000000000
9.075228691101074 -16.438390731811523 -0.508094131946564 0.000000000000000
9.079671859741211 -17.829086303710938 1.651981711387634 1.000000000000000
9.085302352905273 -17.303482055664062 -1.431764841079712 0.000000000000000
9.085592269897461 -19.664825439453125 2.652115345001221 1.000000000000000
9.103537559509277 -18.396972656250000 1.694770693778992 1.000000000000000
9.105147361755371 -18.188896179199219 1.843979835510254 1.000000000000000
9.107423782348633 -17.438684463500977 1.093039631843567 1.000000000000000
9.113631248474121 -19.019908905029297 0.239276036620140 1.000000000000000
9.116145133972168 -20.631996154785156 1.340086936950684 0.000000000000000
9.119854927062988 -19.046543121337891 3.129637956619263 0.000000000000000
9.122230529785156 -18.714948654174805 -1.083832621574402 0.000000000000000
9.122484207153320 -17.522630691528320 -1.447254419326782 0.000000000000000
9.124563217163086 -25.513366699218750 2.718863248825073 0.000000000000000
9.128908157348633 -13.141627311706543 2.371417522430420 0.000000000000000
9.133601188659668 -19.722606658935547 2.180921316146851 1.000000000000000
9.136877059936523 -18.049568176269531 2.029962062835693 1.000000000000000
9.138102531433105 -17.615638732910156 0.873382747173309 1.000000000000000
9.141076087951660 -19.140584945678711 0.444314420223236 0.000000000000000
9.149648666381836 -18.132095336914062 -1.370340704917908 0.000000000000000
9.151739120483398 -20.099323272705078 0.377779752016068 0.000000000000000
9.153413772583008 -17.597787857055664 -1.491476774215698 0.000000000000000
9.165021896362305 -19.531488418579102 2.641421318054199 0.000000000000000
9.165108680725098 -16.739027023315430 0.069946363568306 0.000000000000000
9.167250633239746 -18.109569549560547 0.308230757713318 0.000000000000000
9.180254936218262 -20.802619934082031 3.886713266372681 0.000000000000000
9.180796623229980 -17.094161987304688 0.891290485858917 1.000000000000000
9.185845375061035 -13.971354484558105 2.225064277648926 0.000000000000000
9.185963630676270 -17.190784454345703 0.707895338535309 1.000000000000000
9.189730644226074 -18.023414611816406 2.998283386230469 0.000000000000000
9.191205024719238 -21.852199554443359 0.268952965736389 1.000000000000000
9.193043708801270 -19.165035247802734 3.150161981582642 1.000000000000000
9.202474594116211 -19.182979583740234 2.022423505783081 1.000000000000000
9.204404830932617 -19.962230682373047 -0.510358989238739 0.000000000000000
9.206602096557617 -19.337636947631836 0.983796715736389 1.000000000000000
9.211741447448730 -15.211590766906738 3.698949098587036 0.000000000000000
9.217744827270508 -19.452817916870117 2.864566087722778 1.000000000000000
9.223190307617188 -19.312524795532227 0.777291119098663 1.000000000000000
9.224188804626465 -21.902805328369141 0.315261453390121 1.000000000000000
9.227377891540527 -18.750854492187500 1.894539356231689 1.000000000000000
9.228857040405273 -18.255773544311523 1.215306282043457 1.000000000000000
9.229496955871582 -18.855575561523438 2.236119270324707 1.000000000000000
9.234573364257812 -20.331089019775391 0.296214193105698 1.000000000000000
9.239934921264648 -18.895263671875000 -0.973518729209900 1.000000000000000
9.241666793823242 -16.818874359130859 1.584506869316101 0.000000000000000
9.242437362670898 -19.010393142700195 0.767709255218506 0.000000000000000
9.245978355407715 -18.749814987182617 0.317462503910065 0.000000000000000
9.247643470764160 -18.326293945312500 -0.437155187129974 1.000000000000000
9.255256652832031 -20.347377777099609 0.339448601007462 1.000000000000000
9.255608558654785 -17.828449249267578 0.806809544563293 1.000000000000000
9.255966186523438 -19.721719741821289 1.420276522636414 1.000000000000000
9.264891624450684 -19.000890731811523 -0.166031479835510 0.000000000000000
9.265292167663574 -16.906585693359375 0.440867364406586 0.000000000000000
9.270181655883789 -18.472646713256836 2.073892116546631 1.000000000000000
9.275038719177246 -16.789232254028320 1.287440419197083 0.000000000000000
9.285302162170410 -16.894088745117188 -1.337880611419678 0.000000000000000
9.285970687866211 -19.825227737426758 -0.718589305877686 1.000000000000000
9.286443710327148 -19.643846511840820 2.467943668365479 0.000000000000000
9.291331291198730 -19.061872482299805 -0.777579486370087 1.000000000000000
9.291475296020508 -19.654489517211914 0.413634866476059 1.000000000000000
9.297879219055176 -19.733957290649414 -1.051649808883667 1.000000000000000
9.301718711853027 -6.072508811950684 -1.071577429771423 1.000000000000000
9.305942535400391 -19.421257019042969 1.952321648597717 1.000000000000000
9.308754920959473 -19.514455795288086 2.455754756927490 0.000000000000000
9.309080123901367 -18.507436752319336 1.670470237731934 0.000000000000000
9.310710906982422 -17.924644470214844 2.026767253875732 0.000000000000000
9.310770988464355 -10.374109268188477 -1.209751844406128 0.000000000000000
9.311913490295410 -16.807432174682617 1.586481809616089 1.000000000000000
9.312341690063477 -20.211160659790039 0.808214366436005 0.000000000000000
9.320527076721191 -10.394830703735352 -1.482201099395752 0.000000000000000
9.321385383605957 -6.457322120666504 -1.247890949249268 1.000000000000000
9.329945564270020 -19.868528366088867 -0.509616255760193 1.000000000000000
9.335410118103027 -18.887109756469727 -0.570091128349304 1.000000000000000
9.336030006408691 -17.867290496826172 1.664489269256592 0.000000000000000
9.337815284729004 -19.575374603271484 -0.920392870903015 0.000000000000000
9.338032722473145 -10.323007583618164 -0.055878318846226 0.000000000000000
9.344884872436523 -19.767467498779297 1.763059854507446 1.000000000000000
9.345060348510742 -17.925716400146484 -1.402960777282715 1.000000000000000
9.346152305603027 -21.514183044433594 0.401245594024658 1.000000000000000
