# This PCD file was generated using the MATLAB® pcwrite function
# from Computer Vision Toolbox®.
# .PCD v.7 - Point Cloud Data file format
VERSION .7
FIELDS x y z intensity
SIZE 8 8 8 8
TYPE F F F F
COUNT 1 1 1 1
WIDTH 641
HEIGHT 1
VIEWPOINT 0 0 0 1 0 0 0
POINTS 641
DATA ascii
-11.819284439086914 -8.960927963256836 0.766938984394073 0.000000000000000
-11.802330970764160 -7.856898784637451 2.423551321029663 0.000000000000000
-11.789231300354004 -7.654260635375977 1.870489239692688 0.000000000000000
-11.787014007568359 -7.618357181549072 2.079974651336670 0.000000000000000
-11.779440879821777 -7.635636806488037 1.594434976577759 0.000000000000000
-11.748217582702637 -7.602881431579590 1.404160380363464 0.000000000000000
-11.746761322021484 -9.037734031677246 0.566781282424927 0.000000000000000
-11.727314949035645 -8.891200065612793 0.308272421360016 0.000000000000000
-11.711691856384277 -7.565621376037598 1.263989329338074 0.000000000000000
-11.703925132751465 -7.359521389007568 0.263049244880676 0.000000000000000
-11.694479942321777 -7.574478626251221 1.484108805656433 0.000000000000000
-11.661360740661621 -7.537724018096924 1.319893479347229 0.000000000000000
-11.657274246215820 -7.563961029052734 1.701320290565491 0.000000000000000
-11.651745796203613 -7.326710700988770 0.473429232835770 0.000000000000000
-11.649222373962402 -7.505684375762939 1.844107270240784 0.000000000000000
-11.648752212524414 -7.696113109588623 2.386483669281006 0.000000000000000
-11.643294334411621 -7.333311080932617 0.738001346588135 0.000000000000000
-11.642971992492676 -7.306170463562012 0.631391942501068 0.000000000000000
-11.637908935546875 -9.279785156250000 0.311790764331818 0.000000000000000
-11.628866195678711 -7.480511665344238 1.570509433746338 0.000000000000000
-11.624714851379395 -7.509434700012207 2.365591049194336 0.000000000000000
-11.617711067199707 1.277270436286926 1.018431544303894 1.000000000000000
-11.606150627136230 -7.489981174468994 2.047136068344116 0.000000000000000
-11.600541114807129 -7.449993610382080 1.383393406867981 0.000000000000000
-11.594329833984375 -7.755284786224365 0.292188644409180 0.000000000000000
-11.558331489562988 -7.225814819335938 0.678597331047058 0.000000000000000
-11.557914733886719 -7.409230232238770 2.346720218658447 0.000000000000000
-11.556894302368164 -7.404593467712402 1.680418372154236 0.000000000000000
-11.553551673889160 -7.426078796386719 1.462925314903259 0.000000000000000
-11.550380706787109 -8.708899497985840 0.803692519664764 0.000000000000000
-11.539500236511230 -7.434989452362061 0.947870075702667 0.000000000000000
-11.535094261169434 -7.225295066833496 0.363552153110504 0.000000000000000
-11.534338951110840 -8.683547019958496 0.996916949748993 0.000000000000000
-11.529102325439453 1.439294815063477 0.981767296791077 0.000000000000000
-11.528364181518555 -7.370998382568359 1.820891022682190 0.000000000000000
-11.518183708190918 -7.333936691284180 2.023679971694946 0.000000000000000
-11.516659736633301 -7.387322902679443 1.300588965415955 0.000000000000000
-11.494196891784668 -7.536498546600342 2.349416017532349 0.000000000000000
-11.456322669982910 -8.580407142639160 1.297575235366821 0.000000000000000
-11.415364265441895 -8.649667739868164 0.713004529476166 0.000000000000000
-11.408733367919922 -9.023664474487305 0.724142134189606 0.000000000000000
-11.408685684204102 -9.695138931274414 0.083618991076946 0.000000000000000
-11.405185699462891 -9.415760040283203 0.736274123191833 0.000000000000000
-11.391391754150391 -8.497376441955566 0.899097800254822 0.000000000000000
-11.378139495849609 -9.009799003601074 0.555011570453644 0.000000000000000
-11.376379966735840 1.111052870750427 1.298299908638000 1.000000000000000
-11.359947204589844 -9.277501106262207 1.097667574882507 0.000000000000000
-11.359253883361816 -9.080314636230469 1.200723171234131 0.000000000000000
-11.352184295654297 -8.795505523681641 0.742565512657166 0.000000000000000
-11.348773002624512 -8.384169578552246 2.091116428375244 0.000000000000000
-11.341550827026367 -9.307438850402832 1.239754915237427 0.000000000000000
-11.323371887207031 -8.775079727172852 0.547827422618866 0.000000000000000
-11.319878578186035 -9.638743400573730 0.111582048237324 0.000000000000000
-11.317678451538086 -8.111033439636230 1.704723000526428 0.000000000000000
-11.315172195434570 -9.306959152221680 1.096473455429077 0.000000000000000
-11.297127723693848 -8.627316474914551 0.516258358955383 0.000000000000000
-11.290866851806641 -8.402475357055664 2.085838794708252 0.000000000000000
-11.278756141662598 -8.366575241088867 1.719305753707886 0.000000000000000
-11.273877143859863 -8.487460136413574 1.877876400947571 0.000000000000000
-11.272615432739258 -8.548323631286621 1.882624983787537 0.000000000000000
-11.267629623413086 -9.566472053527832 1.678851604461670 0.000000000000000
-11.265571594238281 -8.680672645568848 0.790157139301300 0.000000000000000
-11.263417243957520 -9.699016571044922 0.054479286074638 0.000000000000000
-11.256080627441406 -9.775801658630371 1.983932256698608 0.000000000000000
-11.244294166564941 -8.909562110900879 0.714197814464569 0.000000000000000
-11.234035491943359 -8.643253326416016 0.978731036186218 0.000000000000000
-11.233940124511719 -9.570304870605469 1.218497037887573 0.000000000000000
-11.228957176208496 -9.074228286743164 1.164121031761169 0.000000000000000
-11.225235939025879 -8.312607765197754 0.668488323688507 0.000000000000000
-11.217141151428223 -0.307839184999466 0.385976165533066 0.000000000000000
-11.209936141967773 -9.652963638305664 0.281463444232941 0.000000000000000
-11.205844879150391 -8.793139457702637 1.121023654937744 0.000000000000000
-11.204101562500000 -9.129382133483887 1.923253536224365 0.000000000000000
-11.198962211608887 -9.870433807373047 0.054713856428862 0.000000000000000
-11.198711395263672 -8.804291725158691 1.203717470169067 0.000000000000000
-11.194860458374023 -9.059595108032227 0.938871026039124 0.000000000000000
-11.185193061828613 -8.292329788208008 0.478929460048676 0.000000000000000
-11.183946609497070 -9.845414161682129 0.770450472831726 0.000000000000000
-11.168646812438965 -8.592944145202637 0.755781888961792 0.000000000000000
-11.159644126892090 -8.278218269348145 0.504643976688385 0.000000000000000
-11.142034530639648 -9.473900794982910 0.559291422367096 0.000000000000000
-11.119362831115723 -9.801655769348145 1.052104234695435 0.000000000000000
-11.117008209228516 -9.438591003417969 0.501617789268494 0.000000000000000
-11.104545593261719 -8.846250534057617 0.270125776529312 0.000000000000000
-11.099427223205566 -9.702451705932617 0.535422086715698 0.000000000000000
-11.091862678527832 -8.773036956787109 0.921956717967987 0.000000000000000
-11.091313362121582 -8.222729682922363 0.687348246574402 0.000000000000000
-11.071740150451660 -8.401473999023438 0.906083345413208 0.000000000000000
-11.070289611816406 -10.051312446594238 1.421336293220520 0.000000000000000
-11.011558532714844 -8.762444496154785 1.107528686523438 0.000000000000000
-10.997699737548828 -8.232122421264648 0.975072562694550 0.000000000000000
-10.997478485107422 -8.159708976745605 0.523676514625549 0.000000000000000
-10.987276077270508 -7.534982204437256 2.277302503585815 0.000000000000000
-10.985974311828613 -9.948901176452637 1.972324132919312 0.000000000000000
-10.966040611267090 -8.376292228698730 0.952829897403717 0.000000000000000
-10.960942268371582 -8.819760322570801 0.808736920356750 0.000000000000000
-10.943300247192383 -9.582158088684082 0.808130383491516 0.000000000000000
-10.941781997680664 -8.492209434509277 0.769521176815033 0.000000000000000
-10.940611839294434 -8.491300582885742 0.983002364635468 0.000000000000000
-10.937098503112793 -8.292088508605957 0.921245872974396 0.000000000000000
-10.930318832397461 -8.035288810729980 1.067671418190002 0.000000000000000
-10.927895545959473 -7.290482997894287 3.519939184188843 0.000000000000000
-10.923814773559570 -10.038635253906250 0.054376658052206 0.000000000000000
-10.922055244445801 -9.710019111633301 0.868245363235474 0.000000000000000
-10.906956672668457 -9.963612556457520 1.077069282531738 0.000000000000000
-10.905863761901855 -9.738645553588867 1.009591937065125 0.000000000000000
-10.899761199951172 -8.440106391906738 0.262288331985474 0.000000000000000
-10.893599510192871 -9.088456153869629 0.842862248420715 0.000000000000000
-10.872057914733887 -9.762480735778809 0.053555659949780 0.000000000000000
-10.858783721923828 -8.287764549255371 1.551549673080444 0.000000000000000
-10.850869178771973 -7.763879776000977 1.775513887405396 0.000000000000000
-10.848244667053223 -9.159044265747070 0.542936086654663 0.000000000000000
-10.838786125183105 -8.659306526184082 0.797488510608673 0.000000000000000
-10.821103096008301 -8.446472167968750 0.947870075702667 0.000000000000000
-10.798705101013184 -8.188944816589355 0.726861715316772 0.000000000000000
-10.776347160339355 -9.293361663818359 0.982588648796082 0.000000000000000
-10.764365196228027 -8.706859588623047 1.143122673034668 0.000000000000000
-10.760688781738281 -7.982272624969482 0.692785739898682 0.000000000000000
-10.759093284606934 -9.707609176635742 1.454080700874329 0.000000000000000
-10.735746383666992 -9.179566383361816 1.604366421699524 0.000000000000000
-10.705245018005371 -9.495879173278809 0.988099515438080 0.000000000000000
-10.681934356689453 -8.818666458129883 0.476454377174377 0.000000000000000
-10.672838211059570 -6.951168537139893 1.887634277343750 0.000000000000000
-10.661304473876953 -9.261850357055664 0.703060209751129 0.000000000000000
-10.655167579650879 -8.952794075012207 1.041545271873474 0.000000000000000
-10.641432762145996 -9.783925056457520 1.026049375534058 0.000000000000000
-10.628400802612305 -8.075586318969727 1.634239673614502 0.000000000000000
-10.621477127075195 -7.823391914367676 1.755463480949402 0.000000000000000
-10.612627029418945 -8.917051315307617 1.317622303962708 0.000000000000000
-10.595326423645020 -7.961272716522217 1.411661624908447 0.000000000000000
-10.594024658203125 -7.872407913208008 0.936839997768402 0.000000000000000
-10.590998649597168 -9.585833549499512 0.299225330352783 0.000000000000000
-10.581419944763184 -8.499773979187012 0.727932810783386 0.000000000000000
-10.580156326293945 -7.738966941833496 1.744382977485657 0.000000000000000
-10.575103759765625 -9.386377334594727 0.051825691014528 0.000000000000000
-10.574419021606445 -9.842883110046387 0.524678766727448 0.000000000000000
-10.566786766052246 -9.035098075866699 1.121041178703308 0.000000000000000
-10.551299095153809 -10.087267875671387 0.277734965085983 0.000000000000000
-10.525237083435059 -9.745114326477051 1.018119692802429 0.000000000000000
-10.523336410522461 -8.884728431701660 0.314944475889206 0.000000000000000
-10.509270668029785 -10.636231422424316 1.032462000846863 0.000000000000000
-10.488937377929688 -8.659334182739258 0.258788108825684 0.000000000000000
-10.487352371215820 -8.120761871337891 0.048614993691444 0.000000000000000
-10.484724998474121 -8.360263824462891 0.900083243846893 0.000000000000000
-10.472810745239258 -9.634294509887695 1.037511825561523 0.000000000000000
-10.468584060668945 -7.817832469940186 1.053527951240540 0.000000000000000
-10.468007087707520 -9.852831840515137 0.356352776288986 0.000000000000000
-10.464188575744629 -10.739538192749023 1.267035484313965 0.000000000000000
-10.458721160888672 -8.887856483459473 0.921245872974396 0.000000000000000
-10.457224845886230 -10.402253150939941 1.480039238929749 0.000000000000000
-10.453572273254395 -7.754453659057617 1.074660301208496 0.000000000000000
-10.448522567749023 -8.032514572143555 1.496927142143250 0.000000000000000
-10.433432579040527 -8.085419654846191 1.756518840789795 0.000000000000000
-10.427087783813477 -8.987094879150391 0.711788773536682 0.000000000000000
-10.413199424743652 -7.908061981201172 0.098133362829685 0.000000000000000
-10.412118911743164 -7.680964946746826 1.917540907859802 0.000000000000000
-10.400823593139648 -8.843660354614258 0.732217311859131 0.000000000000000
-10.393095016479492 -8.408358573913574 0.305708289146423 0.000000000000000
-10.390084266662598 -10.657534599304199 0.769624173641205 0.000000000000000
-10.388814926147461 -8.216966629028320 0.252015948295593 0.000000000000000
-10.377016067504883 -7.169858455657959 2.155990123748779 0.000000000000000
-10.371435165405273 -7.650952816009521 0.716045260429382 0.000000000000000
-10.368032455444336 -9.479933738708496 1.335412621498108 0.000000000000000
-10.367173194885254 -8.506004333496094 0.693405389785767 0.000000000000000
-10.360921859741211 -7.705366611480713 1.066102504730225 0.000000000000000
-10.354140281677246 -8.436811447143555 0.922244548797607 0.000000000000000
-10.351928710937500 -9.243995666503906 1.172731995582581 0.000000000000000
-10.344039916992188 -7.668725967407227 0.839467227458954 0.000000000000000
-10.329176902770996 -8.356647491455078 0.508085489273071 0.000000000000000
-10.326501846313477 -9.889618873596191 0.711811184883118 0.000000000000000
-10.325409889221191 -9.802557945251465 0.270886689424515 0.000000000000000
-10.311168670654297 -7.884052753448486 0.646178960800171 0.000000000000000
-10.306456565856934 -8.516551971435547 0.897404432296753 0.000000000000000
-10.298327445983887 -10.670938491821289 0.881055593490601 0.000000000000000
-10.293704986572266 -7.904633522033691 1.382428526878357 0.000000000000000
-10.291879653930664 -10.454462051391602 1.472051978111267 0.000000000000000
-10.267340660095215 -8.980154037475586 0.311926722526550 0.000000000000000
-10.257884979248047 -8.483647346496582 0.662686467170715 0.000000000000000
-10.245164871215820 -7.657115936279297 1.080785989761353 0.000000000000000
-10.240089416503906 -9.208577156066895 0.103356733918190 0.000000000000000
-10.239400863647461 -9.082661628723145 1.156565666198730 0.000000000000000
-10.226537704467773 -10.935203552246094 0.774168431758881 0.000000000000000
-10.217240333557129 -7.636244773864746 1.697422981262207 0.000000000000000
-10.215837478637695 -10.128493309020996 0.993334829807281 0.000000000000000
-10.186422348022461 -8.680981636047363 1.272200107574463 0.000000000000000
-10.179371833801270 -7.886827945709229 0.269738376140594 0.000000000000000
-10.175171852111816 -9.620836257934570 0.131982639431953 0.000000000000000
-10.141310691833496 -7.934101581573486 1.063140273094177 0.000000000000000
-10.140759468078613 -10.480544090270996 1.940665721893311 0.000000000000000
-10.140127182006836 -7.687855720520020 1.557923316955566 0.000000000000000
-10.130166053771973 -10.527541160583496 0.727324247360229 0.000000000000000
-10.122650146484375 -6.918677330017090 1.392647743225098 0.000000000000000
-10.109903335571289 -8.767361640930176 1.519949793815613 0.000000000000000
-10.107671737670898 -7.946528911590576 0.887801587581635 0.000000000000000
-10.105490684509277 -8.002050399780273 1.089205980300903 0.000000000000000
-10.100885391235352 -9.407369613647461 0.953105449676514 0.000000000000000
-10.097425460815430 -7.892379283905029 0.046972990036011 0.000000000000000
-10.092125892639160 -8.120664596557617 0.944435358047485 0.000000000000000
-10.082869529724121 -8.255970954895020 1.025617361068726 0.000000000000000
-10.082297325134277 -9.018414497375488 0.361309349536896 0.000000000000000
-10.077490806579590 -8.649059295654297 1.262358665466309 0.000000000000000
-10.076357841491699 -6.881617069244385 0.583971202373505 0.000000000000000
-10.053867340087891 -9.562129974365234 0.958065271377563 0.000000000000000
-10.053862571716309 -7.959456443786621 0.860704541206360 0.000000000000000
-10.052464485168457 -9.291749954223633 0.286743611097336 0.000000000000000
-10.045823097229004 -8.364519119262695 0.852217972278595 0.000000000000000
-10.037419319152832 -10.864502906799316 0.366661727428436 0.000000000000000
-10.037035942077637 -8.903157234191895 0.719578087329865 0.000000000000000
-10.033865928649902 -8.775949478149414 0.509766876697540 0.000000000000000
-10.025144577026367 -7.587737560272217 1.339214324951172 0.000000000000000
-10.021800994873047 -8.006602287292480 1.162870168685913 0.000000000000000
-10.013271331787109 -9.544844627380371 1.314972758293152 0.000000000000000
-10.009655952453613 -7.588937282562256 1.037137866020203 0.000000000000000
-10.008663177490234 -10.649942398071289 1.789302945137024 0.000000000000000
-10.008413314819336 2.512454509735107 1.263351917266846 1.000000000000000
-10.004432678222656 -7.856327533721924 0.437540501356125 0.000000000000000
-10.003329277038574 -7.690263748168945 0.240069538354874 0.000000000000000
-10.001742362976074 -6.690024852752686 0.807663977146149 0.000000000000000
-9.991444587707520 -7.966933727264404 0.660769701004028 0.000000000000000
-9.986665725708008 -8.904677391052246 0.460228770971298 0.000000000000000
-9.978588104248047 -10.485147476196289 0.859942495822906 0.000000000000000
-9.974972724914551 -7.900965213775635 0.829578936100006 0.000000000000000
-9.956876754760742 -9.940902709960938 1.188898324966431 0.000000000000000
-9.953133583068848 -8.091865539550781 1.366329073905945 0.000000000000000
-9.944005012512207 -10.232075691223145 1.067815303802490 0.000000000000000
-9.943182945251465 -8.758079528808594 0.506709754467010 0.000000000000000
-9.942230224609375 -6.185607433319092 2.435555696487427 0.000000000000000
-9.938661575317383 -8.558259010314941 1.489704251289368 0.000000000000000
-9.938031196594238 -9.938722610473633 0.375407129526138 0.000000000000000
-9.933914184570312 -7.739191055297852 1.341332674026489 0.000000000000000
-9.925018310546875 3.858031511306763 1.303697466850281 1.000000000000000
-9.922710418701172 -9.099504470825195 0.670244097709656 0.000000000000000
-9.917298316955566 -6.839952468872070 0.831866204738617 0.000000000000000
-9.910847663879395 -7.833016872406006 1.345569372177124 0.000000000000000
-9.894105911254883 -7.388818264007568 1.402579188346863 0.000000000000000
-9.887784957885742 -7.552678585052490 1.655739307403564 0.000000000000000
-9.885708808898926 -9.468139648437500 0.313024073839188 0.000000000000000
-9.868253707885742 -7.423310279846191 1.402579188346863 0.000000000000000
-9.866363525390625 -10.271308898925781 0.709026753902435 0.000000000000000
-9.858919143676758 -9.859605789184570 0.158186286687851 0.000000000000000
-9.857880592346191 -8.088142395019531 0.855882704257965 0.000000000000000
-9.846805572509766 -6.748813629150391 0.663234949111938 0.000000000000000
-9.841616630554199 -6.055550575256348 0.619749724864960 0.000000000000000
-9.821745872497559 -9.206473350524902 0.696090579032898 0.000000000000000
-9.819299697875977 -6.661170005798340 0.956758916378021 0.000000000000000
-9.813880920410156 -11.132447242736816 1.082013964653015 0.000000000000000
-9.805525779724121 -8.443614959716797 0.644190132617950 0.000000000000000
-9.800028800964355 -9.002752304077148 0.662487566471100 0.000000000000000
-9.797071456909180 -9.252977371215820 0.930510878562927 0.000000000000000
-9.795281410217285 -8.956243515014648 0.788537621498108 0.000000000000000
-9.792544364929199 -9.436091423034668 0.493900716304779 0.000000000000000
-9.792490005493164 3.111630201339722 1.756333470344543 0.000000000000000
-9.790472984313965 -8.438397407531738 0.270743608474731 0.000000000000000
-9.776272773742676 -8.478034973144531 0.445103257894516 0.000000000000000
-9.770212173461914 5.684569358825684 1.383902549743652 1.000000000000000
-9.758143424987793 -7.616773128509521 1.647297024726868 0.000000000000000
-9.752377510070801 -7.722436428070068 0.093360282480717 0.000000000000000
-9.744472503662109 -8.944191932678223 1.092105031013489 0.000000000000000
-9.741492271423340 -10.829664230346680 1.384620070457458 0.000000000000000
-9.737627983093262 -8.612401008605957 1.023106694221497 0.000000000000000
-9.713927268981934 -7.867869377136230 0.887279272079468 0.000000000000000
-9.703761100769043 -11.163687705993652 0.850287079811096 0.000000000000000
-9.697496414184570 -8.621351242065430 0.971093952655792 0.000000000000000
-9.697209358215332 -7.623828887939453 1.641492843627930 0.000000000000000
-9.693040847778320 -8.714797973632812 1.595838546752930 0.000000000000000
-9.681883811950684 -7.945433139801025 0.286412924528122 0.000000000000000
-9.675666809082031 -7.997014045715332 0.287053048610687 0.000000000000000
-9.658185005187988 5.741908073425293 1.375638961791992 1.000000000000000
-9.649629592895508 -10.875523567199707 1.088114857673645 0.000000000000000
-9.641321182250977 -8.903612136840820 1.490607142448425 0.000000000000000
-9.639842033386230 1.268765568733215 1.661979317665100 1.000000000000000
-9.637297630310059 -6.646836280822754 0.627890288829803 0.000000000000000
-9.635967254638672 -7.200235843658447 0.807396113872528 0.000000000000000
-9.630517959594727 -7.448950290679932 1.296847462654114 0.000000000000000
-9.625997543334961 -10.842783927917480 0.610230147838593 0.000000000000000
-9.622998237609863 1.091635942459106 2.014424324035645 0.000000000000000
-9.618516921997070 -8.132307052612305 0.094531036913395 0.000000000000000
-9.613241195678711 -10.981892585754395 0.614266932010651 0.000000000000000
-9.606230735778809 5.872645378112793 0.538844406604767 0.000000000000000
-9.599740982055664 -8.104947090148926 0.094290882349014 0.000000000000000
-9.596404075622559 -9.816304206848145 3.678336381912231 0.000000000000000
-9.595644950866699 -9.421717643737793 0.333355873823166 0.000000000000000
-9.592690467834473 -8.283697128295898 0.924074828624725 0.000000000000000
-9.592036247253418 5.873630046844482 1.128599882125854 1.000000000000000
-9.590530395507812 5.846275806427002 0.949097812175751 1.000000000000000
-9.586715698242188 -8.560681343078613 0.293911606073380 0.000000000000000
-9.582476615905762 5.851004123687744 0.905320346355438 1.000000000000000
-9.578015327453613 -8.495992660522461 1.703754544258118 0.000000000000000
-9.575744628906250 -8.434434890747070 0.291808307170868 0.000000000000000
-9.573651313781738 -8.718073844909668 0.445378243923187 0.000000000000000
-9.572082519531250 -6.524248123168945 2.409489393234253 0.000000000000000
-9.561039924621582 5.464142322540283 1.882363557815552 1.000000000000000
-9.555195808410645 -7.215009689331055 1.774458408355713 0.000000000000000
-9.539400100708008 -7.255505561828613 1.776217460632324 0.000000000000000
-9.518581390380859 -11.185089111328125 0.166626513004303 0.000000000000000
-9.494021415710449 -9.177245140075684 1.255166769027710 0.000000000000000
-9.492610931396484 1.818023920059204 2.010351657867432 0.000000000000000
-9.483270645141602 -8.019093513488770 1.520494341850281 0.000000000000000
-9.455607414245605 -5.841956615447998 0.168782904744148 0.000000000000000
-9.453417778015137 -11.121882438659668 1.271910905838013 0.000000000000000
-9.448454856872559 -7.373446941375732 0.804449439048767 0.000000000000000
-9.432736396789551 -9.482919692993164 0.665868639945984 0.000000000000000
-9.425798416137695 -6.923684597015381 3.133781194686890 0.000000000000000
-9.420182228088379 -8.818953514099121 0.642400145530701 0.000000000000000
-9.407773971557617 -7.387780666351318 0.227590486407280 0.000000000000000
-9.401214599609375 -9.545398712158203 1.985563755035400 0.000000000000000
-9.393692016601562 -7.278095245361328 1.454871892929077 0.000000000000000
-9.386397361755371 -8.209651947021484 0.668807029724121 0.000000000000000
-9.374584197998047 -9.033345222473145 0.673162996768951 0.000000000000000
-9.372900009155273 -8.078491210937500 1.021667957305908 0.000000000000000
-9.371530532836914 -8.851069450378418 0.492952942848206 0.000000000000000
-9.364084243774414 -8.655463218688965 0.463122636079788 0.000000000000000
-9.359228134155273 -7.554911136627197 1.281171798706055 0.000000000000000
-9.353805541992188 -11.063249588012695 1.028315067291260 0.000000000000000
-9.352395057678223 -8.240028381347656 0.620522737503052 0.000000000000000
-9.347493171691895 -8.524673461914062 1.068998098373413 0.000000000000000
-9.344028472900391 -9.199677467346191 0.905436456203461 0.000000000000000
-9.341151237487793 -8.363111495971680 0.744888126850128 0.000000000000000
-9.329906463623047 -8.580489158630371 0.095131427049637 0.000000000000000
-9.328812599182129 -8.403239250183105 0.335356593132019 0.000000000000000
-9.328013420104980 2.090527772903442 1.988358259201050 1.000000000000000
-9.327839851379395 -5.651813507080078 0.542957365512848 0.000000000000000
-9.322249412536621 -8.752949714660645 0.120522283017635 0.000000000000000
-9.318012237548828 -8.734294891357422 0.463848561048508 0.000000000000000
-9.316390037536621 -7.218202114105225 0.791055262088776 0.000000000000000
-9.315348625183105 -7.860383987426758 0.818111360073090 0.000000000000000
-9.309720039367676 -10.710363388061523 0.379038393497467 0.000000000000000
-9.308561325073242 -9.986402511596680 1.237626075744629 0.000000000000000
-9.305954933166504 -11.417549133300781 1.400139331817627 0.000000000000000
-9.305312156677246 -9.517546653747559 1.972662806510925 0.000000000000000
-9.304087638854980 -7.689901351928711 0.647384643554688 0.000000000000000
-9.296592712402344 -9.403646469116211 0.480253845453262 0.000000000000000
-9.295351982116699 -9.104590415954590 0.122633397579193 0.000000000000000
-9.290694236755371 -8.435522079467773 0.939152002334595 0.000000000000000
-9.285454750061035 -11.408654212951660 0.647386610507965 0.000000000000000
-9.280157089233398 -10.536646842956543 1.050799489021301 0.000000000000000
-9.278716087341309 -11.391436576843262 0.590097904205322 0.000000000000000
-9.273645401000977 -8.636926651000977 0.289796471595764 0.000000000000000
-9.271319389343262 -8.337392807006836 0.285132646560669 0.000000000000000
-9.265535354614258 -8.059516906738281 1.503481030464172 0.000000000000000
-9.254493713378906 -8.322262763977051 0.667521655559540 0.000000000000000
-9.254370689392090 -7.701700210571289 0.622556984424591 0.000000000000000
-9.250817298889160 -7.957243919372559 0.960339426994324 0.000000000000000
-9.247507095336914 -8.769733428955078 1.003021121025085 0.000000000000000
-9.246499061584473 -9.492463111877441 0.659703195095062 0.000000000000000
-9.235197067260742 -9.567332267761230 1.205484628677368 0.000000000000000
-9.228211402893066 -8.071297645568848 1.631467700004578 0.000000000000000
-9.223723411560059 -8.723662376403809 0.095281526446342 0.000000000000000
-9.214680671691895 -8.702930450439453 1.071018815040588 0.000000000000000
-9.206209182739258 -8.618637084960938 1.432373285293579 0.000000000000000
-9.203639030456543 -8.873584747314453 0.292356997728348 0.000000000000000
-9.200054168701172 6.408739089965820 0.515024960041046 1.000000000000000
-9.186367988586426 -9.857379913330078 1.008409261703491 0.000000000000000
-9.181229591369629 -8.622953414916992 0.094531036913395 0.000000000000000
-9.178593635559082 -9.921702384948730 0.803008377552032 0.000000000000000
-9.174487113952637 -8.171584129333496 0.966929972171783 0.000000000000000
-9.172190666198730 -8.597608566284180 0.843828022480011 0.000000000000000
-9.165397644042969 -11.001432418823242 0.162451773881912 0.000000000000000
-9.162951469421387 -11.571553230285645 0.592826843261719 0.000000000000000
-9.161792755126953 -5.637254714965820 0.245993211865425 0.000000000000000
-9.159001350402832 -8.470643997192383 1.054178953170776 0.000000000000000
-9.158180236816406 -10.761590003967285 0.377436369657516 0.000000000000000
-9.157814979553223 -8.468954086303711 0.813185095787048 0.000000000000000
-9.156744003295898 -11.549618721008301 0.167216420173645 0.000000000000000
-9.148420333862305 -6.011447429656982 0.166232034564018 0.000000000000000
-9.147707939147949 -9.471408843994141 0.731577634811401 0.000000000000000
-9.147224426269531 -7.828498363494873 0.067243702709675 0.000000000000000
-9.143856048583984 -8.986269950866699 0.440978109836578 0.000000000000000
-9.138813972473145 -7.140537261962891 0.577364563941956 0.000000000000000
-9.112210273742676 -8.541384696960449 1.031213164329529 0.000000000000000
-9.106084823608398 -6.229932308197021 0.570505142211914 0.000000000000000
-9.105655670166016 -5.408480167388916 0.160826608538628 0.000000000000000
-9.104032516479492 -11.649276733398438 1.077941894531250 0.000000000000000
-9.102162361145020 -8.899190902709961 0.878984212875366 0.000000000000000
-9.101484298706055 -8.536107063293457 0.669235467910767 0.000000000000000
-9.096917152404785 -8.196078300476074 1.499106168746948 0.000000000000000
-9.093186378479004 -8.683869361877441 0.601754188537598 0.000000000000000
-9.083052635192871 -7.821487426757812 0.781438350677490 0.000000000000000
-9.082062721252441 -5.655066490173340 0.162466466426849 0.000000000000000
-9.077356338500977 -8.220456123352051 0.656810522079468 0.000000000000000
-9.074940681457520 3.589723348617554 1.194813013076782 1.000000000000000
-9.064893722534180 -11.036567687988281 1.041293025016785 0.000000000000000
-9.059642791748047 -5.618089675903320 0.407660633325577 0.000000000000000
-9.053507804870605 -10.632569313049316 0.991215288639069 0.000000000000000
-9.052763938903809 2.332439661026001 1.597953319549561 0.000000000000000
-9.052119255065918 -8.040807723999023 0.090868674218655 0.000000000000000
-9.048469543457031 -7.682354927062988 0.225840374827385 0.000000000000000
-9.047872543334961 -9.025162696838379 0.464138925075531 0.000000000000000
-9.032459259033203 -11.071733474731445 2.442422151565552 0.000000000000000
-9.018023490905762 -8.282049179077148 1.629357099533081 0.000000000000000
-9.017375946044922 -6.901290893554688 1.390221714973450 0.000000000000000
-9.011355400085449 -7.393589973449707 0.423343479633331 0.000000000000000
-9.006340980529785 -7.599640369415283 0.609337449073792 0.000000000000000
-8.991232872009277 -7.378650665283203 0.623820006847382 0.000000000000000
-8.984961509704590 -7.113226890563965 0.064004383981228 0.000000000000000
-8.982567787170410 -11.110774993896484 0.354172050952911 0.000000000000000
-8.977836608886719 -7.963614940643311 0.274433314800262 0.000000000000000
-8.971890449523926 -9.267330169677734 0.666966319084167 0.000000000000000
-8.971594810485840 -11.075837135314941 1.292158126831055 0.000000000000000
-8.971395492553711 -9.019753456115723 0.878433167934418 0.000000000000000
-8.970965385437012 -6.572491168975830 1.361542344093323 0.000000000000000
-8.969851493835449 -8.888191223144531 0.458622097969055 0.000000000000000
-8.966077804565430 -10.315019607543945 0.155055224895477 0.000000000000000
-8.961821556091309 -10.113840103149414 0.542742371559143 0.000000000000000
-8.959945678710938 -9.813082695007324 0.559265434741974 0.000000000000000
-8.958624839782715 -5.598840713500977 0.403992146253586 0.000000000000000
-8.953412055969238 -8.567438125610352 0.831773340702057 0.000000000000000
-8.953236579895020 -9.942183494567871 0.743337929248810 0.000000000000000
-8.952609062194824 -10.752121925354004 0.831238210201263 0.000000000000000
-8.946316719055176 -10.311899185180664 0.338411241769791 0.000000000000000
-8.943219184875488 -10.071573257446289 0.540976583957672 0.000000000000000
-8.926168441772461 -10.796788215637207 1.048411250114441 0.000000000000000
-8.924157142639160 -5.908785820007324 0.327006429433823 0.000000000000000
-8.918147087097168 -8.301191329956055 0.629993021488190 0.000000000000000
-8.913689613342285 -8.289492607116699 0.981513857841492 0.000000000000000
-8.908697128295898 -7.521507263183594 0.625319600105286 0.000000000000000
-8.900903701782227 -7.567763805389404 0.761661648750305 0.000000000000000
-8.899288177490234 -8.001152038574219 0.988095045089722 0.000000000000000
-8.898863792419434 -5.443410396575928 0.078290551900864 0.000000000000000
-8.897926330566406 -5.951697826385498 0.388790756464005 0.000000000000000
-8.896224975585938 -7.630915164947510 0.673756122589111 0.000000000000000
-8.883707046508789 -8.830528259277344 0.744176447391510 0.000000000000000
-8.876015663146973 -7.113826274871826 0.544389665126801 0.000000000000000
-8.871059417724609 -7.491848468780518 0.756977736949921 0.000000000000000
-8.868069648742676 -6.156126976013184 1.321682810783386 0.000000000000000
-8.865801811218262 -7.476813793182373 0.577364563941956 0.000000000000000
-8.864706993103027 -8.689455986022949 0.929002285003662 0.000000000000000
-8.863427162170410 -5.081064224243164 0.390693902969360 0.000000000000000
-8.859220504760742 -8.917551040649414 1.538965702056885 0.000000000000000
-8.859190940856934 -8.563595771789551 0.922136247158051 0.000000000000000
-8.851380348205566 -8.072230339050293 0.827181994915009 0.000000000000000
-8.845774650573730 -5.888697624206543 0.447244197130203 0.000000000000000
-8.839247703552246 -7.676263332366943 0.763222992420197 0.000000000000000
-8.836916923522949 -10.759005546569824 1.262183547019958 0.000000000000000
-8.834960937500000 -8.605437278747559 1.827821016311646 0.000000000000000
-8.834942817687988 -8.812767028808594 1.527785658836365 0.000000000000000
-8.832935333251953 -10.837197303771973 1.046321630477905 0.000000000000000
-8.828511238098145 -6.694893836975098 0.423710256814957 0.000000000000000
-8.826642990112305 -6.939400196075439 0.602183401584625 0.000000000000000
-8.814227104187012 3.556167840957642 1.976954221725464 1.000000000000000
-8.806489944458008 -10.788595199584961 0.773737132549286 0.000000000000000
-8.805818557739258 -8.604651451110840 0.447152912616730 0.000000000000000
-8.803809165954590 -12.055788040161133 0.484784096479416 0.000000000000000
-8.803331375122070 -8.137145042419434 0.619871795177460 0.000000000000000
-8.801744461059570 -9.505686759948730 1.174426555633545 0.000000000000000
-8.799927711486816 -7.373031616210938 0.416955590248108 0.000000000000000
-8.798607826232910 -7.738477706909180 0.583331167697906 0.000000000000000
-8.789505004882812 -5.252496719360352 0.116166636347771 1.000000000000000
-8.788617134094238 -6.520817756652832 1.456290721893311 0.000000000000000
-8.776908874511719 -7.603065490722656 0.913891613483429 0.000000000000000
-8.768280982971191 -10.757872581481934 0.610805094242096 0.000000000000000
-8.761881828308105 -10.673726081848145 1.033485174179077 0.000000000000000
-8.756403923034668 -7.434384822845459 0.926217198371887 0.000000000000000
-8.748888015747070 -6.491340637207031 0.752234101295471 0.000000000000000
-8.745973587036133 -9.714071273803711 0.148293972015381 0.000000000000000
-8.745753288269043 -11.757295608520508 0.814121425151825 0.000000000000000
-8.741503715515137 -10.708982467651367 0.342673599720001 0.000000000000000
-8.739379882812500 -8.093887329101562 0.089397720992565 0.000000000000000
-8.738302230834961 -5.735192298889160 2.174079418182373 0.000000000000000
-8.733630180358887 -9.371572494506836 1.217693448066711 0.000000000000000
-8.728721618652344 -7.539219379425049 1.412095904350281 0.000000000000000
-8.724773406982422 -7.121333122253418 0.821108996868134 0.000000000000000
-8.723659515380859 -8.007215499877930 0.794805645942688 0.000000000000000
-8.723622322082520 -9.100726127624512 0.919130146503448 0.000000000000000
-8.721908569335938 -7.911877155303955 0.314530313014984 0.000000000000000
-8.721782684326172 -12.031419754028320 0.482576996088028 0.000000000000000
-8.718179702758789 -6.754717826843262 0.400550276041031 0.000000000000000
-8.716349601745605 -11.083665847778320 1.340333342552185 0.000000000000000
-8.704026222229004 -10.007897377014160 0.125008404254913 0.000000000000000
-8.701732635498047 -11.484492301940918 0.661860287189484 0.000000000000000
-8.699649810791016 -7.233368873596191 0.215263620018959 0.000000000000000
-8.697500228881836 -9.483676910400391 0.318982809782028 0.000000000000000
-8.684187889099121 -6.773123264312744 1.250900149345398 0.000000000000000
-8.681626319885254 -8.307368278503418 0.621317684650421 0.000000000000000
-8.674366950988770 -8.078794479370117 1.001638412475586 0.000000000000000
-8.673156738281250 -10.484789848327637 0.363445371389389 0.000000000000000
-8.672089576721191 -9.573376655578613 0.767424523830414 0.000000000000000
-8.671961784362793 -6.386049270629883 0.556872487068176 0.000000000000000
-8.664072990417480 -11.951811790466309 0.252514511346817 0.000000000000000
-8.660810470581055 -5.346518516540527 2.117059946060181 0.000000000000000
-8.658213615417480 -6.719390392303467 0.082253113389015 0.000000000000000
-8.657012939453125 -8.459245681762695 0.625861883163452 0.000000000000000
-8.654994964599609 -10.388785362243652 0.777287304401398 0.000000000000000
-8.651062965393066 -6.909515380859375 0.083093650639057 0.000000000000000
-8.649627685546875 -8.453206062316895 0.788464307785034 0.000000000000000
-8.648927688598633 -6.848668098449707 0.591686427593231 0.000000000000000
-8.647253036499023 -9.751968383789062 1.931614518165588 0.000000000000000
-8.646017074584961 -8.437884330749512 0.601429760456085 0.000000000000000
-8.645571708679199 -5.425249099731445 0.154996037483215 0.000000000000000
-8.639657020568848 -12.055297851562500 0.852582693099976 0.000000000000000
-8.636051177978516 -11.388306617736816 0.574045181274414 0.000000000000000
-8.630539894104004 -8.798461914062500 0.613561749458313 0.000000000000000
-8.628134727478027 2.096613645553589 1.517752408981323 1.000000000000000
-8.619780540466309 -6.679924488067627 0.921480357646942 0.000000000000000
-8.618227005004883 -6.721677780151367 0.375938326120377 0.000000000000000
-8.612431526184082 -6.636298656463623 0.771731913089752 1.000000000000000
-8.609804153442383 -6.816222190856934 0.567819893360138 0.000000000000000
-8.609220504760742 -11.924695014953613 0.845466315746307 0.000000000000000
-8.608475685119629 -6.574064731597900 0.727031528949738 0.000000000000000
-8.607483863830566 -8.129455566406250 1.575537681579590 0.000000000000000
-8.607398986816406 -6.685732841491699 0.899884104728699 0.000000000000000
-8.603563308715820 -8.225191116333008 0.775973737239838 0.000000000000000
-8.603448867797852 -7.339992523193359 3.030253410339355 0.000000000000000
-8.602215766906738 -5.757379055023193 0.874665379524231 0.000000000000000
-8.597173690795898 -7.055266380310059 0.767940163612366 0.000000000000000
-8.594741821289062 -6.945493698120117 0.550117254257202 0.000000000000000
-8.593724250793457 2.211609125137329 1.086414575576782 1.000000000000000
-8.590389251708984 -6.465801715850830 0.721673905849457 0.000000000000000
-8.570586204528809 2.237581968307495 1.084470272064209 1.000000000000000
-8.564154624938965 -9.249094009399414 2.154642343521118 0.000000000000000
-8.551372528076172 -11.258674621582031 1.281685113906860 0.000000000000000
-8.548445701599121 -8.411686897277832 0.804985165596008 0.000000000000000
-8.538187026977539 -5.193137168884277 0.459043979644775 0.000000000000000
-8.537779808044434 -9.547644615173340 0.711607396602631 0.000000000000000
-8.524424552917480 -6.765586376190186 0.898567438125610 0.000000000000000
-8.522126197814941 -10.079577445983887 0.124405227601528 0.000000000000000
-8.518716812133789 -7.137417793273926 0.232795938849449 0.000000000000000
-8.517439842224121 2.480671644210815 1.516404390335083 1.000000000000000
-8.511392593383789 -11.486130714416504 0.024951213970780 0.000000000000000
-8.506173133850098 -7.232668399810791 0.770971119403839 0.000000000000000
-8.505871772766113 2.570018053054810 1.087872862815857 1.000000000000000
-8.504703521728516 -8.145467758178711 1.567095398902893 0.000000000000000
-8.501998901367188 2.663060426712036 1.853140115737915 1.000000000000000
-8.500194549560547 -4.879148483276367 0.242954298853874 0.000000000000000
-8.494517326354980 -7.046273231506348 0.273583769798279 0.000000000000000
-8.492143630981445 -6.242894649505615 0.504425644874573 0.000000000000000
-8.488918304443359 2.691538572311401 1.852325558662415 1.000000000000000
-8.486642837524414 4.057378768920898 1.956590175628662 1.000000000000000
-8.481882095336914 -9.289499282836914 0.723111331462860 0.000000000000000
-8.478777885437012 -8.907332420349121 1.114838480949402 0.000000000000000
-8.474941253662109 -5.266571521759033 0.823851406574249 0.000000000000000
-8.465435028076172 -6.751581668853760 0.414080470800400 0.000000000000000
-8.464493751525879 -11.810885429382324 0.388116508722305 0.000000000000000
-8.463891029357910 -11.198986053466797 0.861036777496338 0.000000000000000
-8.461310386657715 -9.739804267883301 1.226399421691895 0.000000000000000
-8.459855079650879 -8.988060951232910 1.642548203468323 0.000000000000000
-8.453943252563477 3.073976278305054 1.871060609817505 1.000000000000000
-8.449738502502441 -4.788033485412598 0.278066992759705 0.000000000000000
-8.448196411132812 2.499581813812256 1.078637123107910 1.000000000000000
-8.445265769958496 -6.557430744171143 1.309044480323792 0.000000000000000
-8.443300247192383 4.217405319213867 1.963106632232666 0.000000000000000
-8.440961837768555 -8.784954071044922 0.841234743595123 0.000000000000000
-8.439833641052246 -6.705176353454590 0.939262628555298 0.000000000000000
-8.436912536621094 4.177480220794678 1.958219170570374 1.000000000000000
-8.434853553771973 -6.690656185150146 0.618891477584839 0.000000000000000
-8.429723739624023 2.078029394149780 1.484054565429688 1.000000000000000
-8.426130294799805 -6.964262485504150 1.454707860946655 0.000000000000000
-8.413602828979492 -11.077287673950195 2.377722263336182 0.000000000000000
-8.406714439392090 -7.055571079254150 0.440807610750198 0.000000000000000
-8.404962539672852 -11.766374588012695 0.025237448513508 0.000000000000000
-8.394496917724609 -11.132598876953125 1.263989329338074 0.000000000000000
-8.390304565429688 -6.786578178405762 1.321196794509888 0.000000000000000
-8.389942169189453 -5.455575942993164 0.075108498334885 0.000000000000000
-8.387129783630371 -11.696030616760254 0.578058362007141 0.000000000000000
-8.386698722839355 -7.756384849548340 0.612680375576019 0.000000000000000
-8.381193161010742 -8.904487609863281 1.033297419548035 0.000000000000000
-8.380615234375000 -7.021709918975830 0.565341293811798 0.000000000000000
-8.378678321838379 -8.437966346740723 1.078002333641052 0.000000000000000
-8.377758026123047 -6.170750141143799 0.558053255081177 0.000000000000000
-8.376872062683105 -6.215318679809570 0.881401360034943 0.000000000000000
-8.371884346008301 -7.270903587341309 0.936973094940186 0.000000000000000
-8.371294975280762 -6.968266487121582 1.449431419372559 0.000000000000000
-8.368776321411133 -9.230125427246094 0.141351208090782 0.000000000000000
-8.368139266967773 -8.489359855651855 0.869101583957672 0.000000000000000
-8.364492416381836 -5.448167324066162 2.076331377029419 0.000000000000000
-8.363096237182617 -6.818833351135254 0.537189722061157 0.000000000000000
-8.362180709838867 -7.838340759277344 0.240083917975426 0.000000000000000
-8.358219146728516 -7.153241157531738 0.568852722644806 0.000000000000000
-8.351080894470215 -6.919914722442627 1.607333183288574 0.000000000000000
-8.350120544433594 -6.622021198272705 0.756438851356506 0.000000000000000
-8.346696853637695 -7.986877918243408 0.419568806886673 0.000000000000000
-8.344428062438965 -8.184603691101074 1.732237219810486 0.000000000000000
-8.325382232666016 -9.922507286071777 0.545136690139771 0.000000000000000
-8.319841384887695 -9.452294349670410 1.097253203392029 0.000000000000000
-8.315487861633301 -8.616357803344727 0.896164774894714 0.000000000000000
-8.310657501220703 -6.867360115051270 0.391549140214920 0.000000000000000
-8.306513786315918 -7.173028469085693 0.994940102100372 0.000000000000000
-8.305912017822266 -6.293568611145020 1.183637857437134 0.000000000000000
-8.301597595214844 -7.377759933471680 0.916999578475952 0.000000000000000
-8.300106048583984 -7.379031181335449 1.055687546730042 0.000000000000000
-8.288520812988281 -7.348036766052246 0.402292430400848 0.000000000000000
-8.288342475891113 -5.046923637390137 0.277838051319122 0.000000000000000
-8.281649589538574 2.195530176162720 1.464509725570679 1.000000000000000
-8.274122238159180 2.253923416137695 1.465857744216919 1.000000000000000
-8.271207809448242 -6.724465370178223 0.510162174701691 0.000000000000000
-8.267038345336914 -11.567739486694336 0.407083690166473 0.000000000000000
-8.265139579772949 -7.032196521759033 0.039774570614100 0.000000000000000
-8.258760452270508 -9.368384361267090 0.525625467300415 0.000000000000000
-8.254950523376465 -6.981408596038818 0.788241326808929 0.000000000000000
-8.244809150695801 -6.876145362854004 1.314391493797302 0.000000000000000
-8.241597175598145 -6.518638610839844 0.038513746112585 0.000000000000000
-8.241331100463867 7.292852878570557 0.929900348186493 1.000000000000000
-8.240941047668457 -8.598978042602539 1.132148385047913 0.000000000000000
-8.233428955078125 -6.853506088256836 0.574548482894897 0.000000000000000
-8.226782798767090 -8.120640754699707 0.686767876148224 0.000000000000000
-8.221917152404785 -8.038575172424316 1.530160546302795 0.000000000000000
-8.207455635070801 -6.638678550720215 0.708547711372375 0.000000000000000
-8.204863548278809 -7.961624145507812 0.591160655021667 0.000000000000000
-8.202389717102051 -6.230919837951660 0.751010775566101 0.000000000000000
-8.197231292724609 -11.182069778442383 0.556868791580200 0.000000000000000
-8.194234848022461 -7.066585540771484 0.580332517623901 0.000000000000000
-8.171070098876953 -0.180861651897430 1.700001478195190 1.000000000000000
-8.162855148315430 -11.516450881958008 0.024637056514621 0.000000000000000
-8.160946846008301 -6.587640285491943 0.501939892768860 0.000000000000000
-8.154690742492676 2.344173431396484 1.450356721878052 1.000000000000000
-8.154382705688477 -7.931450843811035 0.107214689254761 0.000000000000000
-8.152741432189941 -6.689118862152100 0.220900654792786 0.000000000000000
-8.149317741394043 -7.027850627899170 1.432019233703613 0.000000000000000
-8.144208908081055 -6.480751037597656 0.498115569353104 0.000000000000000
-8.138305664062500 -8.080560684204102 0.999333739280701 0.000000000000000
-8.135910034179688 -6.135746955871582 0.923795580863953 0.000000000000000
-8.135053634643555 -8.122002601623535 0.616536378860474 0.000000000000000
-8.134894371032715 -7.154734134674072 0.372638165950775 0.000000000000000
-8.131408691406250 -4.936589717864990 0.254080682992935 0.000000000000000
-8.122329711914062 -7.204247474670410 0.707796275615692 0.000000000000000
-8.119640350341797 -7.883329868316650 0.258795827627182 0.000000000000000
-8.119632720947266 -7.404896259307861 0.251297146081924 0.000000000000000
-8.116210937500000 -6.903042316436768 0.530427575111389 0.000000000000000
-8.106227874755859 -7.288129329681396 0.395904570817947 0.000000000000000
-8.103511810302734 -7.881969928741455 0.280225127935410 0.000000000000000
-8.101342201232910 -6.799279212951660 1.567457675933838 0.000000000000000
-8.098422050476074 -7.199728965759277 2.253907203674316 0.000000000000000
-8.094091415405273 -8.559864044189453 0.858921289443970 0.000000000000000
-8.090306282043457 -7.022390365600586 0.389081090688705 0.000000000000000
-8.081711769104004 -6.883428573608398 0.773989021778107 0.000000000000000
-8.072107315063477 -7.465437412261963 1.463150143623352 0.000000000000000
-8.072045326232910 -5.361836910247803 1.289555907249451 0.000000000000000
-8.066314697265625 -6.572635173797607 0.558053255081177 0.000000000000000
-8.065143585205078 -7.314052104949951 0.081712760031223 0.000000000000000
-8.064279556274414 -6.293255805969238 0.371514379978180 0.000000000000000
-8.060649871826172 -6.421382427215576 1.170546412467957 0.000000000000000
-8.059853553771973 -7.730200290679932 0.083814114332199 0.000000000000000
-8.051864624023438 -7.230110168457031 0.372225672006607 0.000000000000000
-8.047024726867676 -6.293359756469727 1.250713467597961 0.000000000000000
-8.046845436096191 -6.813603878021240 0.918775975704193 0.000000000000000
-8.042168617248535 -8.014702796936035 0.565232574939728 0.000000000000000
-8.041308403015137 -6.983801841735840 0.735426008701324 0.000000000000000
-8.038578987121582 -7.167653083801270 0.204915136098862 0.000000000000000
-8.036355018615723 -6.654868125915527 1.277448415756226 0.000000000000000
-8.032125473022461 -6.922879695892334 0.059223599731922 0.000000000000000
-8.031681060791016 -6.509036064147949 1.767116785049438 0.000000000000000
