# This PCD file was generated using the MATLAB® pcwrite function
# from Computer Vision Toolbox®.
# .PCD v.7 - Point Cloud Data file format
VERSION .7
FIELDS x y z intensity
SIZE 8 8 8 8
TYPE F F F F
COUNT 1 1 1 1
WIDTH 639
HEIGHT 1
VIEWPOINT 0 0 0 1 0 0 0
POINTS 639
DATA ascii
-0.676520824432373 -21.455724716186523 0.490889042615891 0.000000000000000
-0.673351943492889 -18.531114578247070 0.566550493240356 0.000000000000000
-0.670755088329315 -19.246459960937500 1.329773664474487 0.000000000000000
-0.668138146400452 -17.012847900390625 1.077149510383606 0.000000000000000
-0.667527019977570 -14.092167854309082 -0.029547702521086 0.000000000000000
-0.658411204814911 -14.230766296386719 -0.631958246231079 0.000000000000000
-0.650334239006042 -5.203425884246826 -0.031118340790272 0.000000000000000
-0.647477507591248 -20.580242156982422 0.747819662094116 0.000000000000000
-0.645486116409302 -8.296080589294434 -0.497282624244690 0.000000000000000
-0.645237088203430 -24.031528472900391 1.752746343612671 0.000000000000000
-0.643079698085785 -23.951177597045898 -0.096181355416775 0.000000000000000
-0.638286530971527 -21.749370574951172 2.183317661285400 0.000000000000000
-0.634771645069122 -20.919847488403320 0.880864202976227 0.000000000000000
-0.634162783622742 -13.279932975769043 -0.487507909536362 0.000000000000000
-0.631339907646179 -19.295743942260742 0.478573352098465 0.000000000000000
-0.628680944442749 -19.698316574096680 0.677899003028870 0.000000000000000
-0.628389477729797 -19.689184188842773 -1.443162798881531 0.000000000000000
-0.628217279911041 -28.813959121704102 0.935942232608795 0.000000000000000
-0.623375177383423 -23.217292785644531 1.335116028785706 0.000000000000000
-0.623215079307556 -18.361104965209961 -0.109021008014679 0.000000000000000
-0.621981978416443 -20.150268554687500 0.073890097439289 0.000000000000000
-0.621911466121674 -27.154491424560547 0.360306382179260 0.000000000000000
-0.621727705001831 -25.403217315673828 1.705604076385498 0.000000000000000
-0.619160234928131 -24.837516784667969 1.236868858337402 0.000000000000000
-0.618512988090515 -18.092193603515625 -0.211698025465012 0.000000000000000
-0.617221295833588 -17.251863479614258 0.560604631900787 0.000000000000000
-0.615107357501984 -18.819723129272461 0.828711152076721 0.000000000000000
-0.614029526710510 -24.108144760131836 0.042090337723494 0.000000000000000
-0.612607061862946 -15.379804611206055 -0.002686410909519 0.000000000000000
-0.601194620132446 -4.853611469268799 -0.301698654890060 0.000000000000000
-0.600890636444092 -19.057128906250000 1.316547513008118 0.000000000000000
-0.600690484046936 -18.821298599243164 1.518404722213745 0.000000000000000
-0.596816420555115 -19.967857360839844 1.186839222908020 0.000000000000000
-0.596535146236420 -18.164110183715820 0.275980412960052 0.000000000000000
-0.593651592731476 -18.359607696533203 -0.320635616779327 0.000000000000000
-0.590850234031677 -17.699115753173828 3.683472394943237 0.000000000000000
-0.588788270950317 -23.117120742797852 0.395567268133163 0.000000000000000
-0.587245523929596 -5.649871826171875 -0.295704156160355 0.000000000000000
-0.583535969257355 -4.378060340881348 -0.315048962831497 0.000000000000000
-0.579366087913513 -27.027896881103516 -0.731521427631378 0.000000000000000
-0.574131011962891 -18.705913543701172 -0.218854427337646 0.000000000000000
-0.572202861309052 -15.516087532043457 0.205965161323547 0.000000000000000
-0.569472432136536 -21.574586868286133 0.286292642354965 0.000000000000000
-0.568315923213959 -19.014308929443359 1.423654079437256 0.000000000000000
-0.565296649932861 -20.162271499633789 2.684112787246704 0.000000000000000
-0.564471542835236 -20.183145523071289 -0.197350323200226 0.000000000000000
-0.562706291675568 -21.764663696289062 1.671436786651611 0.000000000000000
-0.562056541442871 -21.739530563354492 2.182119369506836 0.000000000000000
-0.559993326663971 -30.294248580932617 1.916896700859070 0.000000000000000
-0.556473493576050 -18.339414596557617 -0.073653399944305 0.000000000000000
-0.555380105972290 -26.251050949096680 1.357686519622803 0.000000000000000
-0.553135573863983 -18.847885131835938 -0.003290992928669 0.000000000000000
-0.553070187568665 -22.597932815551758 -1.263798952102661 0.000000000000000
-0.550811648368835 -18.428663253784180 1.752539873123169 0.000000000000000
-0.549139022827148 -8.291759490966797 -0.753337621688843 0.000000000000000
-0.543422341346741 -6.123936653137207 -0.001073028426617 0.000000000000000
-0.540965259075165 -14.068931579589844 -0.137613534927368 0.000000000000000
-0.535928130149841 -12.792187690734863 -0.567964732646942 0.000000000000000
-0.535190641880035 -4.427762508392334 -0.009340994060040 0.000000000000000
-0.528656303882599 -26.849069595336914 0.304665148258209 0.000000000000000
-0.528631508350372 -20.446699142456055 -0.317739099264145 0.000000000000000
-0.527258753776550 -16.332786560058594 0.782070159912109 0.000000000000000
-0.524639487266541 -19.464065551757812 0.183516547083855 0.000000000000000
-0.518503367900848 -18.243286132812500 2.072946071624756 0.000000000000000
-0.517767131328583 -19.283973693847656 0.811902105808258 0.000000000000000
-0.517690598964691 -16.373031616210938 1.004787802696228 0.000000000000000
-0.516908109188080 -27.394233703613281 1.258562326431274 0.000000000000000
-0.509755730628967 -18.985593795776367 -0.367989420890808 0.000000000000000
-0.509515941143036 -7.667088985443115 -0.429602324962616 0.000000000000000
-0.507670342922211 -30.810295104980469 2.187187433242798 0.000000000000000
-0.506686091423035 -20.791709899902344 1.757413983345032 0.000000000000000
-0.504861950874329 -5.027874469757080 -0.263056099414825 0.000000000000000
-0.504090011119843 -25.970022201538086 2.469074964523315 0.000000000000000
-0.503451704978943 -21.982189178466797 -0.046051524579525 0.000000000000000
-0.502006888389587 -7.419035434722900 -0.001297826878726 0.000000000000000
-0.501860797405243 -19.503551483154297 0.483628690242767 0.000000000000000
-0.497726440429688 -6.886338710784912 -0.465845853090286 0.000000000000000
-0.497485697269440 -30.712778091430664 1.292786240577698 0.000000000000000
-0.497355371713638 -21.716005325317383 1.290506720542908 0.000000000000000
-0.496376365423203 -20.281476974487305 0.424963623285294 0.000000000000000
-0.492060452699661 -21.783880233764648 1.898664832115173 0.000000000000000
-0.484495371580124 -18.739578247070312 0.284665524959564 0.000000000000000
-0.481747150421143 -29.741144180297852 2.168681859970093 0.000000000000000
-0.479845285415649 -4.616577148437500 -0.313166886568069 0.000000000000000
-0.477396696805954 -20.844549179077148 1.981921911239624 0.000000000000000
-0.477258384227753 -16.578145980834961 0.793734252452850 0.000000000000000
-0.476837784051895 -22.538604736328125 0.125908792018890 0.000000000000000
-0.475003570318222 -22.451906204223633 -1.255537271499634 0.000000000000000
-0.462449759244919 -7.325954914093018 -0.410399705171585 0.000000000000000
-0.460849553346634 -18.486909866333008 0.351848334074020 0.000000000000000
-0.454371005296707 -15.986819267272949 -0.924967110157013 0.000000000000000
-0.452633500099182 -28.433897018432617 0.377231389284134 0.000000000000000
-0.444783449172974 -14.658502578735352 -0.284147650003433 0.000000000000000
-0.443587869405746 -6.266585826873779 -0.472365975379944 0.000000000000000
-0.439669430255890 -19.197265625000000 1.437087655067444 0.000000000000000
-0.438858211040497 -7.852011680603027 -0.348862230777740 0.000000000000000
-0.430187046527863 -16.022098541259766 -0.803523480892181 0.000000000000000
-0.430162429809570 -33.853195190429688 0.904287934303284 0.000000000000000
-0.427065223455429 -18.950344085693359 0.579132378101349 0.000000000000000
-0.424557268619537 -6.505333423614502 -0.339373528957367 0.000000000000000
-0.422687798738480 -16.595649719238281 -0.481107443571091 0.000000000000000
-0.421420931816101 -16.545909881591797 0.537494957447052 0.000000000000000
-0.420847356319427 -13.376743316650391 -0.130811050534248 0.000000000000000
-0.419305443763733 -8.181118011474609 -0.048612020909786 0.000000000000000
-0.418853938579559 -26.932340621948242 1.237271189689636 0.000000000000000
-0.417262196540833 -18.616312026977539 0.747896134853363 0.000000000000000
-0.411808311939240 -16.742465972900391 -0.742927610874176 0.000000000000000
-0.410734057426453 -26.619367599487305 1.069271564483643 0.000000000000000
-0.410071700811386 -12.702707290649414 -0.759525179862976 0.000000000000000
-0.406171292066574 -18.948219299316406 0.360598891973495 0.000000000000000
-0.406095534563065 -21.521572113037109 -0.334390252828598 0.000000000000000
-0.405502825975418 -11.560033798217773 -0.335222482681274 0.000000000000000
-0.404171824455261 -19.823747634887695 0.072673253715038 0.000000000000000
-0.403897792100906 -20.225973129272461 -1.364955186843872 0.000000000000000
-0.402989745140076 -16.165872573852539 -0.189106315374374 0.000000000000000
-0.400110989809036 -16.878105163574219 -0.197432041168213 0.000000000000000
-0.399510681629181 -20.290102005004883 0.854120314121246 0.000000000000000
-0.397761970758438 -24.556234359741211 1.411788702011108 0.000000000000000
-0.393875867128372 -18.329820632934570 1.407509684562683 0.000000000000000
-0.391244083642960 -6.824794769287109 -0.001193107105792 0.000000000000000
-0.387762397527695 -21.951528549194336 -0.214591115713120 0.000000000000000
-0.385634243488312 -25.630596160888672 0.733918309211731 0.000000000000000
-0.383296787738800 -6.559914112091064 -0.342076867818832 0.000000000000000
-0.382927417755127 -19.175840377807617 -0.113815739750862 0.000000000000000
-0.377463042736053 -10.550414085388184 -0.630909383296967 0.000000000000000
-0.373939275741577 -27.187711715698242 1.772613406181335 0.000000000000000
-0.373151361942291 -15.246617317199707 -0.383384764194489 0.000000000000000
-0.369994908571243 -16.417938232421875 0.249378427863121 0.000000000000000
-0.365421861410141 -28.758199691772461 1.653284907341003 0.000000000000000
-0.363757789134979 -22.456951141357422 2.036106109619141 0.000000000000000
-0.363075107336044 -13.755178451538086 -0.028818853199482 0.000000000000000
-0.360013037919998 -9.167037010192871 -0.689804315567017 0.000000000000000
-0.357127547264099 -18.926450729370117 0.287459343671799 0.000000000000000
-0.355502665042877 -16.845174789428711 -0.488291591405869 0.000000000000000
-0.354852259159088 -20.088460922241211 0.420858889818192 0.000000000000000
-0.353987425565720 -12.296180725097656 -0.924937546253204 0.000000000000000
-0.349970549345016 -26.949920654296875 1.913045406341553 0.000000000000000
-0.349862039089203 -14.295038223266602 -0.139763757586479 0.000000000000000
-0.348276644945145 -21.136760711669922 -0.125446543097496 0.000000000000000
-0.348122686147690 -11.083628654479980 -0.491917014122009 0.000000000000000
-0.344644010066986 -8.058243751525879 -0.482010960578918 0.000000000000000
-0.337237328290939 -5.445163249969482 -0.368099004030228 0.000000000000000
-0.333377271890640 -18.034881591796875 1.921334147453308 0.000000000000000
-0.331649303436279 -12.827713966369629 -0.002239606576040 0.000000000000000
-0.328727543354034 -4.679895877838135 -0.343693673610687 0.000000000000000
-0.328309595584869 -10.169979095458984 -0.765082955360413 0.000000000000000
-0.327429443597794 -9.381056785583496 -0.416401118040085 0.000000000000000
-0.325195521116257 -9.363931655883789 -0.849400758743286 0.000000000000000
-0.323672711849213 -21.587574005126953 -0.293935090303421 0.000000000000000
-0.321499794721603 -15.084218978881836 0.925443112850189 0.000000000000000
-0.315653294324875 -7.380401134490967 -0.555442452430725 0.000000000000000
-0.314594060182571 -15.068827629089355 1.040728330612183 0.000000000000000
-0.312689155340195 -14.977584838867188 -0.578124701976776 0.000000000000000
-0.312665760517120 -12.275943756103516 -0.544742703437805 0.000000000000000
-0.308829128742218 -15.574256896972656 -0.840910732746124 0.000000000000000
-0.305699884891510 -19.203702926635742 1.141054749488831 0.000000000000000
-0.303967475891113 -11.934430122375488 -0.897645294666290 0.000000000000000
-0.303625732660294 -8.486598968505859 -0.638518869876862 0.000000000000000
-0.303267270326614 -23.866718292236328 1.740239143371582 0.000000000000000
-0.301095932722092 -26.177318572998047 2.060336112976074 0.000000000000000
-0.299674868583679 -4.490491390228271 -0.260284155607224 0.000000000000000
-0.296815246343613 -18.645580291748047 1.772601246833801 0.000000000000000
-0.294546902179718 -25.491853713989258 0.729911565780640 0.000000000000000
-0.292339414358139 -19.497777938842773 0.034033901989460 0.000000000000000
-0.290318876504898 -27.908454895019531 3.714069128036499 0.000000000000000
-0.288145989179611 -4.190030097961426 -0.024923155084252 0.000000000000000
-0.285400688648224 -19.034994125366211 1.498255014419556 0.000000000000000
-0.283999979496002 -21.869773864746094 -0.129790306091309 0.000000000000000
-0.283414006233215 -18.223541259765625 1.117927432060242 0.000000000000000
-0.282998323440552 -11.563049316406250 -0.468603104352951 0.000000000000000
-0.280353516340256 -19.398502349853516 0.667311131954193 0.000000000000000
-0.275138735771179 -6.350042819976807 -0.001109331264161 0.000000000000000
-0.274500966072083 -13.941185951232910 -0.055974654853344 0.000000000000000
-0.269127607345581 -18.988721847534180 0.981962859630585 0.000000000000000
-0.267920643091202 -18.903562545776367 1.268956542015076 0.000000000000000
-0.267632842063904 -28.501512527465820 1.199603438377380 0.000000000000000
-0.266111761331558 -28.339525222778320 2.066297769546509 0.000000000000000
-0.262893319129944 -9.131916999816895 -0.545960962772369 0.000000000000000
-0.261176794767380 -10.254373550415039 -0.613012909889221 0.000000000000000
-0.250202596187592 -29.196308135986328 2.929727077484131 0.000000000000000
-0.249166443943977 -19.609056472778320 0.825358092784882 0.000000000000000
-0.246098563075066 -19.803085327148438 1.482164621353149 0.000000000000000
-0.244985267519951 -16.339460372924805 0.782070159912109 0.000000000000000
-0.241288647055626 -5.152831077575684 -0.238756194710732 0.000000000000000
-0.241240605711937 -16.089708328247070 0.522564530372620 0.000000000000000
-0.238769099116325 -22.952957153320312 1.939621925354004 0.000000000000000
-0.236850127577782 -20.591781616210938 0.668752729892731 0.000000000000000
-0.236471146345139 -15.771605491638184 -0.457121580839157 0.000000000000000
-0.234317019581795 -26.220754623413086 2.492543220520020 0.000000000000000
-0.231360673904419 -28.879848480224609 0.937889754772186 0.000000000000000
-0.228478476405144 -19.863948822021484 0.950721919536591 0.000000000000000
-0.213295057415962 -19.459321975708008 0.669373691082001 0.000000000000000
-0.196433514356613 -20.919153213500977 -0.405338525772095 0.000000000000000
-0.193175926804543 -6.344464778900146 -0.330431699752808 0.000000000000000
-0.193052098155022 -21.603090286254883 -0.045247275382280 0.000000000000000
-0.187579497694969 -25.110755920410156 0.477780222892761 0.000000000000000
-0.187225416302681 -13.097163200378418 -0.379602104425430 0.000000000000000
-0.183096587657928 -22.855232238769531 0.039891224354506 0.000000000000000
-0.181660383939743 -22.675956726074219 0.387904942035675 0.000000000000000
-0.180600076913834 -12.045246124267578 -1.092086791992188 0.000000000000000
-0.175750315189362 -18.716499328613281 0.499937653541565 0.000000000000000
-0.172186702489853 -8.296185493469238 -0.752254188060760 0.000000000000000
-0.169912874698639 -28.300251007080078 2.466041803359985 0.000000000000000
-0.164984956383705 -8.925276756286621 -0.671209573745728 0.000000000000000
-0.160823911428452 -28.092971801757812 2.048264026641846 0.000000000000000
-0.160805135965347 -26.783288955688477 0.663936257362366 0.000000000000000
-0.158085405826569 -26.330297470092773 1.057553052902222 0.000000000000000
-0.152062267065048 -25.327098846435547 -0.150298491120338 0.000000000000000
-0.150398507714272 -18.773658752441406 -0.255600482225418 0.000000000000000
-0.150267899036407 -7.433973789215088 -0.086952418088913 0.000000000000000
-0.145101502537727 -9.677643775939941 -0.578413128852844 0.000000000000000
-0.144243776798248 -30.162391662597656 0.747696518898010 0.000000000000000
-0.140946313738823 -13.045762062072754 -0.378095746040344 0.000000000000000
-0.139852166175842 -20.234436035156250 1.085258364677429 0.000000000000000
-0.139103367924690 -20.126096725463867 2.678308486938477 0.000000000000000
-0.135578036308289 -8.228173255920410 -0.555245161056519 0.000000000000000
-0.133642211556435 -24.541477203369141 0.325554400682449 0.000000000000000
-0.133261650800705 -12.475589752197266 -0.889935076236725 0.000000000000000
-0.132168427109718 -23.087388992309570 0.616671621799469 0.000000000000000
-0.131310716271400 -22.937561035156250 2.079442977905273 0.000000000000000
-0.131063744425774 -5.815746307373047 -0.179764747619629 0.000000000000000
-0.122202128171921 -7.973952770233154 -0.522701859474182 0.000000000000000
-0.117625020444393 -23.159400939941406 2.323893308639526 0.000000000000000
-0.111043483018875 -27.904541015625000 1.819192528724670 0.000000000000000
-0.110191613435745 -20.235113143920898 1.514405131340027 0.000000000000000
-0.108474217355251 -7.234762191772461 -0.544045686721802 0.000000000000000
-0.105907239019871 -28.623357772827148 0.159865751862526 0.000000000000000
-0.104680776596069 -22.050407409667969 0.970464348793030 0.000000000000000
-0.103357255458832 -22.864421844482422 0.391120404005051 0.000000000000000
-0.103060461580753 -12.864634513854980 -0.768831372261047 0.000000000000000
-0.100073978304863 -29.254446029663086 1.118735671043396 0.000000000000000
-0.092575311660767 -23.263605117797852 0.442625820636749 0.000000000000000
-0.088267266750336 -15.418663978576660 -1.010609269142151 0.000000000000000
-0.083652853965759 -22.608705520629883 -0.568342268466949 0.000000000000000
-0.082795403897762 -18.315784454345703 0.031967435032129 0.000000000000000
-0.080521218478680 -15.853967666625977 0.240754038095474 0.000000000000000
-0.080254100263119 -8.452400207519531 -0.570324540138245 0.000000000000000
-0.079769410192966 -15.705942153930664 -0.968883693218231 0.000000000000000
-0.078356266021729 -17.333768844604492 1.846344828605652 0.000000000000000
-0.076422683894634 -16.906026840209961 1.069572806358337 0.000000000000000
-0.075237102806568 -15.506546974182129 -1.016364812850952 0.000000000000000
-0.073216326534748 -21.403196334838867 2.848209142684937 0.000000000000000
-0.070287294685841 -7.402690887451172 -0.271456599235535 0.000000000000000
-0.063753098249435 -5.285955905914307 -0.244674250483513 0.000000000000000
-0.062449123710394 -24.847486495971680 -0.147450134158134 0.000000000000000
-0.057764463126659 -12.778504371643066 -0.370332181453705 0.000000000000000
-0.054165977984667 -22.489748001098633 3.844254016876221 0.000000000000000
-0.051521517336369 -21.391765594482422 -0.085872761905193 0.000000000000000
-0.050053160637617 -11.072629928588867 -0.832563757896423 0.000000000000000
-0.049686543643475 -20.629882812500000 1.185902595520020 0.000000000000000
-0.046231374144554 -4.019361495971680 -0.054724853485823 0.000000000000000
-0.038114175200462 -9.971740722656250 -0.288988918066025 0.000000000000000
-0.035480145365000 -22.339788436889648 2.241624593734741 0.000000000000000
-0.033563233911991 -17.170457839965820 0.227771356701851 0.000000000000000
-0.031536854803562 -19.223134994506836 1.675047397613525 0.000000000000000
-0.030351946130395 -20.703285217285156 0.831530809402466 0.000000000000000
-0.029322152957320 -28.475820541381836 0.487104654312134 0.000000000000000
-0.027365805581212 -13.999943733215332 -0.029321508482099 0.000000000000000
-0.021153477951884 -20.542919158935547 1.299650907516479 0.000000000000000
-0.017080238088965 -16.587245941162109 0.538663387298584 0.000000000000000
-0.016125399619341 -15.659968376159668 0.027331842109561 0.000000000000000
-0.012597052380443 -12.233460426330566 -0.919839024543762 0.000000000000000
-0.010330767370760 -21.144662857055664 -1.222896575927734 0.000000000000000
-0.009330105036497 -19.096540451049805 0.363338202238083 0.000000000000000
-0.007990171201527 -16.354009628295898 -0.442526638507843 0.000000000000000
-0.005982276052237 -28.561735153198242 0.598283052444458 0.000000000000000
-0.004390715155751 -20.962999343872070 -0.204895615577698 0.000000000000000
0.001516428077593 -21.696144104003906 0.829689562320709 0.000000000000000
0.001520214253105 -21.750314712524414 0.497381806373596 0.000000000000000
0.001523972256109 -21.804082870483398 1.505570411682129 0.000000000000000
0.005897887051105 -6.034276962280273 -0.407143890857697 0.000000000000000
0.007725210394710 -7.903857231140137 -0.046903003007174 0.000000000000000
0.010205139406025 -10.827661514282227 -0.085042037069798 0.000000000000000
0.012367702089250 -16.870841979980469 -0.197291731834412 0.000000000000000
0.014694223180413 -3.028447151184082 -0.145998269319534 0.000000000000000
0.016400594264269 -21.355392456054688 0.160273492336273 0.000000000000000
0.020129965618253 -6.705514907836914 -0.181446745991707 0.000000000000000
0.021198987960815 -2.540960550308228 -0.122499868273735 0.000000000000000
0.022297337651253 -20.605747222900391 0.867239892482758 0.000000000000000
0.024310167878866 -17.855943679809570 -0.037397488951683 0.000000000000000
0.032304905354977 -13.126905441284180 -0.987019956111908 0.000000000000000
0.036944720894098 -27.136087417602539 2.030849218368530 0.000000000000000
0.040081560611725 -21.067960739135742 -0.003677059663460 0.000000000000000
0.041115753352642 -16.707141876220703 0.542558312416077 0.000000000000000
0.047034457325935 -34.547050476074219 2.052475214004517 0.000000000000000
0.060585867613554 -20.181823730468750 -1.478525757789612 0.000000000000000
0.062875643372536 -10.564490318298340 -0.957742750644684 0.000000000000000
0.066330820322037 -8.334135055541992 -0.305608510971069 0.000000000000000
0.066463515162468 -6.668869495391846 -0.193277254700661 0.000000000000000
0.073046356439590 -7.881599426269531 -0.471034497022629 0.000000000000000
0.075293853878975 -13.961132049560547 -0.431435406208038 0.000000000000000
0.078432656824589 -17.151506423950195 0.985956490039825 0.000000000000000
0.081682510674000 -7.133872509002686 -0.371397763490677 0.000000000000000
0.085273653268814 -12.592045783996582 -0.704020857810974 0.000000000000000
0.086620248854160 -19.386348724365234 1.689283847808838 0.000000000000000
0.090222045779228 -10.155599594116211 -0.001772556337528 0.000000000000000
0.090266555547714 -18.603738784790039 -0.038964092731476 0.000000000000000
0.090270742774010 -9.740086555480957 -0.732392251491547 0.000000000000000
0.090687960386276 -20.296735763549805 1.440660595893860 0.000000000000000
0.091418527066708 -20.460243225097656 1.136752247810364 0.000000000000000
0.101107046008110 -22.628616333007812 3.353644132614136 0.000000000000000
0.101697579026222 -22.760782241821289 0.564216971397400 0.000000000000000
0.104347817599773 -21.505855560302734 0.285284548997879 0.000000000000000
0.108569487929344 -18.242061614990234 0.592412889003754 0.000000000000000
0.121635168790817 -10.655790328979492 -0.575269222259521 0.000000000000000
0.122568935155869 -18.099302291870117 0.101088948547840 0.000000000000000
0.128835946321487 -26.552806854248047 0.760248243808746 0.000000000000000
0.131026297807693 -12.766888618469238 -0.910710632801056 0.000000000000000
0.133577793836594 -5.845768451690674 -0.090835846960545 0.000000000000000
0.137574583292007 -23.115554809570312 0.040345009416342 0.000000000000000
0.137840390205383 -17.094070434570312 1.246352195739746 0.000000000000000
0.140967100858688 -20.816091537475586 2.548577785491943 0.000000000000000
0.142077028751373 -31.798046112060547 1.277154207229614 0.000000000000000
0.142825454473495 -19.391344070434570 0.071075230836868 0.000000000000000
0.146714672446251 -20.806842803955078 -0.163423970341682 0.000000000000000
0.148357853293419 -9.422998428344727 -0.472460627555847 0.000000000000000
0.156294167041779 -15.228931427001953 1.022237420082092 0.000000000000000
0.160155564546585 -16.041713714599609 0.551806986331940 0.000000000000000
0.163043782114983 -20.851665496826172 2.552952766418457 0.000000000000000
0.165848642587662 -20.567472457885742 -0.398519605398178 0.000000000000000
0.168287888169289 -28.276065826416016 2.225414037704468 0.000000000000000
0.169321313500404 -20.295251846313477 -0.042507812380791 0.000000000000000
0.169990345835686 -20.375442504882812 1.936878204345703 0.000000000000000
0.173476576805115 -17.375989913940430 0.330618739128113 0.000000000000000
0.174468010663986 -19.638519287109375 0.902119636535645 0.000000000000000
0.176357820630074 -8.933037757873535 -0.671809375286102 0.000000000000000
0.178157866001129 -9.665268898010254 -0.503237724304199 0.000000000000000
0.178399741649628 -17.869110107421875 1.440925359725952 0.000000000000000
0.178818047046661 -7.696188926696777 -0.460058003664017 0.000000000000000
0.183994457125664 -23.016941070556641 1.900486588478088 0.000000000000000
0.184047311544418 -6.168509960174561 -0.095868483185768 0.000000000000000
0.187749907374382 -13.650398254394531 -0.343176633119583 0.000000000000000
0.192612841725349 -16.822151184082031 0.158560127019882 0.000000000000000
0.197866365313530 -12.176017761230469 -0.915640234947205 0.000000000000000
0.201448231935501 -22.281520843505859 0.980664968490601 0.000000000000000
0.202161535620689 -18.326761245727539 0.067175485193729 0.000000000000000
0.210992440581322 -20.558599472045898 0.114828109741211 0.000000000000000
0.211744025349617 -25.380138397216797 1.899499177932739 0.000000000000000
0.215124860405922 -12.474205017089844 -0.313623607158661 0.000000000000000
0.216777414083481 -26.883327484130859 1.131482362747192 0.000000000000000
0.217633262276649 -17.586446762084961 0.537355720996857 0.000000000000000
0.219487190246582 -10.010865211486816 -0.367169946432114 0.000000000000000
0.219851493835449 -13.528907775878906 -0.600227415561676 0.000000000000000
0.221355631947517 -16.093709945678711 -0.157317295670509 0.000000000000000
0.222178593277931 -14.334247589111328 -0.030025223270059 0.000000000000000
0.225096881389618 -8.421961784362793 -0.503486692905426 0.000000000000000
0.225905701518059 -19.973575592041016 2.445526361465454 0.000000000000000
0.227422207593918 -28.203426361083984 2.556869745254517 0.000000000000000
0.232000306248665 -9.985112190246582 -0.750986933708191 0.000000000000000
0.235792085528374 -13.672612190246582 -0.764531373977661 0.000000000000000
0.236225470900536 -20.444366455078125 1.490677952766418 0.000000000000000
0.239613786339760 -18.015810012817383 -0.487536668777466 0.000000000000000
0.245751515030861 -9.194751739501953 -0.691603720188141 0.000000000000000
0.250530362129211 -16.650989532470703 -0.322659075260162 0.000000000000000
0.261672645807266 -18.881223678588867 1.303872585296631 0.000000000000000
0.269143193960190 -12.978560447692871 -0.525923609733582 0.000000000000000
0.272961199283600 -16.138198852539062 1.239110708236694 0.000000000000000
0.273794770240784 -18.541381835937500 1.030244112014771 0.000000000000000
0.275594204664230 -22.950159072875977 1.717698931694031 0.000000000000000
0.278345048427582 -27.121278762817383 -0.265101522207260 0.000000000000000
0.278737068176270 -20.265638351440430 0.424544751644135 0.000000000000000
0.284989207983017 -16.425609588623047 -0.886837482452393 0.000000000000000
0.286153942346573 -10.840956687927246 -0.710801303386688 0.000000000000000
0.288189351558685 -26.545562744140625 1.321594119071960 0.000000000000000
0.288289874792099 -19.160598754882812 0.217404052615166 0.000000000000000
0.288304030895233 -17.169464111328125 0.062938526272774 0.000000000000000
0.295904606580734 -8.073604583740234 -0.125505074858665 0.000000000000000
0.296317160129547 -7.561963558197021 -0.059438325464725 1.000000000000000
0.296542882919312 -10.656352996826172 -0.575484812259674 0.000000000000000
0.296606242656708 -25.670080184936523 -0.103053741157055 0.000000000000000
0.297263741493225 -11.647209167480469 -0.763647019863129 0.000000000000000
0.298577010631561 -15.423785209655762 -0.951643705368042 0.000000000000000
0.299944132566452 -18.457534790039062 0.032218761742115 0.000000000000000
0.302026271820068 -9.109237670898438 -0.421845763921738 0.000000000000000
0.302502214908600 -8.253616333007812 -0.382268846035004 0.000000000000000
0.302530705928802 -17.436630249023438 0.666900396347046 0.000000000000000
0.302713125944138 -20.119209289550781 1.824117064476013 0.000000000000000
0.309936732053757 -14.046786308288574 -0.975093662738800 0.000000000000000
0.311833918094635 -20.118518829345703 -0.351212233304977 0.000000000000000
0.314910024404526 -9.340312004089355 -0.702700674533844 0.000000000000000
0.319494038820267 -20.070390701293945 -1.315649509429932 0.000000000000000
0.320052146911621 -17.941024780273438 0.065768048167229 0.000000000000000
0.324897497892380 -16.017772674560547 -1.173702359199524 0.000000000000000
0.327500611543655 -11.791081428527832 -1.069334983825684 0.000000000000000
0.328903049230576 -20.571054458618164 0.509995877742767 0.000000000000000
0.332218736410141 -16.827848434448242 0.546582996845245 0.000000000000000
0.336341053247452 -17.036653518676758 0.029740395024419 0.000000000000000
0.338525056838989 -20.458082199096680 -0.357146054506302 0.000000000000000
0.340046077966690 -21.938676834106445 1.303554177284241 0.000000000000000
0.341841340065002 -18.440505981445312 0.776243686676025 0.000000000000000
0.342713981866837 -26.497905731201172 0.453308343887329 0.000000000000000
0.344343662261963 -16.874824523925781 1.295753955841064 0.000000000000000
0.347281098365784 -22.456014633178711 3.328428745269775 0.000000000000000
0.354849517345428 -9.536375045776367 -0.570300102233887 0.000000000000000
0.358427017927170 -11.527088165283203 -0.511593699455261 0.000000000000000
0.358903765678406 -14.120314598083496 -0.735309362411499 0.000000000000000
0.362994164228439 -18.386711120605469 -0.250373005867004 0.000000000000000
0.364923387765884 -22.456134796142578 1.420877575874329 0.000000000000000
0.367409199476242 -22.609104156494141 2.408552169799805 0.000000000000000
0.368046194314957 -21.918375015258789 1.429123997688293 0.000000000000000
0.370683819055557 -19.996404647827148 -0.080284930765629 0.000000000000000
0.370684981346130 -18.826122283935547 0.828711152076721 0.000000000000000
0.370903670787811 -20.121950149536133 1.428482770919800 0.000000000000000
0.376525491476059 -30.426162719726562 0.462072819471359 0.000000000000000
0.377140045166016 -16.504789352416992 1.656557798385620 0.000000000000000
0.379887014627457 -12.732253074645996 -0.393629223108292 0.000000000000000
0.380628883838654 -14.084712028503418 -0.245939314365387 0.000000000000000
0.380723863840103 -16.386056900024414 -0.223146721720695 0.000000000000000
0.383470028638840 -25.486551284790039 1.072780489921570 0.000000000000000
0.384553730487823 -10.051397323608398 -0.911877989768982 0.000000000000000
0.384902685880661 -21.367073059082031 -0.249912202358246 0.000000000000000
0.385989248752594 -11.924384117126465 -0.644051432609558 0.000000000000000
0.386117964982986 -20.828992843627930 0.556435585021973 0.000000000000000
0.391316235065460 -26.499935150146484 0.249790623784065 0.000000000000000
0.392947107553482 -20.298721313476562 0.620298326015472 0.000000000000000
0.393276810646057 -20.370998382568359 1.775397419929504 0.000000000000000
0.397085607051849 -15.204688072204590 2.254136562347412 0.000000000000000
0.398350149393082 -18.082450866699219 0.205197468400002 0.000000000000000
0.399749189615250 -20.123783111572266 0.576282143592834 0.000000000000000
0.400180548429489 -30.941097259521484 1.004881858825684 0.000000000000000
0.400720834732056 -19.996942520141602 -0.349117964506149 0.000000000000000
0.401701718568802 -18.831588745117188 0.069037392735481 0.000000000000000
0.403057783842087 -17.347291946411133 0.030284939333797 0.000000000000000
0.403577834367752 -21.770858764648438 0.247035607695580 0.000000000000000
0.404972106218338 -15.932776451110840 2.362035036087036 0.000000000000000
0.409307777881622 -24.375638961791992 -0.659678459167480 0.000000000000000
0.414869815111160 -18.832332611083984 1.082830429077148 0.000000000000000
0.416993141174316 -15.291956901550293 1.737536907196045 0.000000000000000
0.418478429317474 -18.758249282836914 1.114722728729248 0.000000000000000
0.419176071882248 -15.912221908569336 -0.981936752796173 0.000000000000000
0.419545054435730 -17.315118789672852 0.362806499004364 0.000000000000000
0.421723991632462 -26.035381317138672 1.145985126495361 0.000000000000000
0.422683268785477 -11.359367370605469 -0.329428791999817 0.000000000000000
0.433555871248245 -15.069201469421387 1.845689535140991 0.000000000000000
0.434306681156158 -13.245490074157715 -0.638886868953705 0.000000000000000
0.437391638755798 -22.155160903930664 1.743988871574402 0.000000000000000
0.438103437423706 -28.265022277832031 0.809359252452850 0.000000000000000
0.441003382205963 -17.279129028320312 -0.334902137517929 0.000000000000000
0.441534131765366 -18.222635269165039 0.662018656730652 0.000000000000000
0.443726599216461 -16.272325515747070 0.559919774532318 0.000000000000000
0.445020049810410 -16.893278121948242 1.695695281028748 0.000000000000000
0.445688128471375 -19.504661560058594 0.296265929937363 0.000000000000000
0.445784986019135 -16.922315597534180 1.038337826728821 0.000000000000000
0.451915979385376 -15.262537002563477 2.262932777404785 0.000000000000000
0.455823838710785 -17.859815597534180 0.477188944816589 0.000000000000000
0.457114368677139 -17.597303390502930 3.661478996276855 0.000000000000000
0.458081126213074 -18.905550003051758 -0.184840008616447 0.000000000000000
0.459417164325714 -24.783092498779297 -0.480269223451614 0.000000000000000
0.460389196872711 -22.697647094726562 1.830573081970215 0.000000000000000
0.461936026811600 -17.535419464111328 0.805758893489838 0.000000000000000
0.465843498706818 -17.083395004272461 -0.462434947490692 0.000000000000000
0.468208730220795 -17.773536682128906 0.543219089508057 0.000000000000000
0.475932955741882 -17.453395843505859 0.063994102180004 0.000000000000000
0.479801028966904 -12.598469734191895 -0.559278666973114 0.000000000000000
0.481536716222763 -18.194953918457031 0.731040775775909 0.000000000000000
0.483797490596771 -25.474479675292969 1.513736009597778 0.000000000000000
0.486857563257217 -13.983757019042969 -0.324858307838440 0.000000000000000
0.487517952919006 -17.585382461547852 0.368502825498581 0.000000000000000
0.491228610277176 -16.929882049560547 0.712832212448120 0.000000000000000
0.499682575464249 -15.403454780578613 1.272476911544800 0.000000000000000
0.505082726478577 -16.179866790771484 0.090410389006138 0.000000000000000
0.506781041622162 -13.423989295959473 -0.776926159858704 0.000000000000000
0.512556791305542 -13.520606994628906 -0.392116427421570 0.000000000000000
0.515381276607513 -20.276592254638672 1.767410993576050 0.000000000000000
0.517072737216949 -17.650491714477539 3.672883033752441 0.000000000000000
0.521541059017181 -13.613245964050293 -0.945461511611938 0.000000000000000
0.524801075458527 -19.961437225341797 1.739979624748230 0.000000000000000
0.525828659534454 -17.623617172241211 1.769178152084351 0.000000000000000
0.530744910240173 -20.881042480468750 1.160494685173035 0.000000000000000
0.533712625503540 -19.251684188842773 -0.188241243362427 0.000000000000000
0.536048591136932 -25.849208831787109 -0.252708494663239 0.000000000000000
0.536254286766052 -17.973041534423828 0.825948715209961 0.000000000000000
0.536548793315887 -17.909519195556641 0.719643354415894 0.000000000000000
0.539793014526367 -16.462614059448242 3.426069259643555 0.000000000000000
0.546133756637573 -16.471622467041016 -1.016662955284119 0.000000000000000
0.558590590953827 -21.503782272338867 2.044756174087524 0.000000000000000
0.563875317573547 -17.006713867187500 0.519887685775757 0.000000000000000
0.563903987407684 -18.691831588745117 0.535413444042206 0.000000000000000
0.564032196998596 -18.717750549316406 0.464200288057327 0.000000000000000
0.565545618534088 -28.773603439331055 0.713399469852448 0.000000000000000
0.571733891963959 -22.009754180908203 1.308061480522156 0.000000000000000
0.578901231288910 -16.677696228027344 0.093202896416187 0.000000000000000
0.585424244403839 -18.066041946411133 -0.940971314907074 0.000000000000000
0.596361935138702 -32.170528411865234 2.916926145553589 0.000000000000000
0.601046919822693 -3.683273792266846 -0.007816276513040 0.000000000000000
0.613806903362274 -15.430187225341797 1.467894077301025 0.000000000000000
0.618933260440826 -25.544105529785156 0.142708554863930 0.000000000000000
0.619672119617462 -24.379697799682617 -0.144720450043678 0.000000000000000
0.622378885746002 -33.764770507812500 0.318288892507553 0.000000000000000
0.631195724010468 -17.395980834960938 3.620750665664673 0.000000000000000
0.632841110229492 -21.602293014526367 1.617395281791687 0.000000000000000
0.635415017604828 -18.250694274902344 0.979431629180908 0.000000000000000
0.635535597801208 -17.340261459350586 0.530148625373840 0.000000000000000
0.638656616210938 -19.708780288696289 0.185853868722916 0.000000000000000
0.640228271484375 -20.440584182739258 1.096826434135437 0.000000000000000
0.640787184238434 -18.404996871948242 1.271633863449097 0.000000000000000
0.646501481533051 -24.267932891845703 0.601785182952881 0.000000000000000
0.649183034896851 -24.643449783325195 -0.004302585497499 0.000000000000000
0.649553835391998 -19.980442047119141 1.149173021316528 0.000000000000000
0.650777935981750 -22.509939193725586 1.598405361175537 0.000000000000000
0.653458774089813 -18.291519165039062 0.172508582472801 0.000000000000000
0.660104513168335 -19.909027099609375 1.998811721801758 0.000000000000000
0.660601615905762 -18.206417083740234 0.241672158241272 0.000000000000000
0.666802287101746 -15.408059120178223 1.466001510620117 0.000000000000000
0.671017885208130 -18.783033370971680 1.044223427772522 0.000000000000000
0.678948342800140 -17.657442092895508 1.151990532875061 0.000000000000000
0.680346250534058 -16.564231872558594 0.570232689380646 0.000000000000000
0.683311820030212 -22.901807785034180 -0.003998898435384 0.000000000000000
0.690373361110687 -21.397016525268555 2.621005535125732 0.000000000000000
0.691620647907257 -17.509418487548828 1.007305502891541 0.000000000000000
0.698638498783112 -17.734210968017578 -0.923919498920441 0.000000000000000
0.699749112129211 -31.763959884643555 2.316440582275391 0.000000000000000
0.700106680393219 -23.166316986083984 2.468713045120239 0.000000000000000
0.700379550457001 -21.360183715820312 2.031507730484009 0.000000000000000
0.711137890815735 -21.448215484619141 -0.003745476715267 0.000000000000000
0.712839543819427 -24.656604766845703 0.232486978173256 0.000000000000000
0.713760197162628 -26.583524703979492 0.761393010616302 0.000000000000000
0.715335667133331 -27.154649734497070 2.085392236709595 0.000000000000000
0.715909421443939 -19.266803741455078 0.552012801170349 0.000000000000000
0.718313932418823 -20.106935501098633 1.753174543380737 0.000000000000000
0.721810579299927 -4.328215599060059 -0.009190198034048 0.000000000000000
0.722754418849945 -28.435255050659180 2.018963813781738 0.000000000000000
0.722890436649323 -19.751882553100586 1.722270846366882 0.000000000000000
0.725187242031097 -19.986419677734375 -1.272284626960754 0.000000000000000
0.725596904754639 -20.153089523315430 0.848737895488739 0.000000000000000
0.726087927818298 -24.785310745239258 -0.051932580769062 0.000000000000000
0.739791154861450 -18.597242355346680 1.392906427383423 0.000000000000000
0.744906365871429 -20.529886245727539 1.952776074409485 0.000000000000000
0.746179878711700 -27.918195724487305 1.766878724098206 0.000000000000000
0.746384203433990 -19.098707199096680 2.340044498443604 0.000000000000000
0.757683932781219 -18.872880935668945 0.867613255977631 0.000000000000000
0.760710716247559 -19.123128890991211 1.137021899223328 0.000000000000000
0.761082172393799 -17.744297027587891 0.986753344535828 0.000000000000000
0.766987562179565 -6.508463859558105 -0.492760211229324 0.000000000000000
0.771735191345215 -23.815551757812500 1.691296339035034 0.000000000000000
0.777380585670471 -24.902679443359375 -0.243521228432655 0.000000000000000
0.781280875205994 -26.185327529907227 0.397815048694611 0.000000000000000
0.781746983528137 -18.896291732788086 1.160048604011536 0.000000000000000
0.784629642963409 -17.906455993652344 0.547616660594940 0.000000000000000
0.786735832691193 -21.143068313598633 1.338544487953186 0.000000000000000
0.791627943515778 -27.022546768188477 2.569761037826538 0.000000000000000
0.796510219573975 -17.690404891967773 0.643145263195038 0.000000000000000
0.799196183681488 -23.704362869262695 2.526331901550293 0.000000000000000
0.799765944480896 -15.997578620910645 0.920761764049530 0.000000000000000
0.801303327083588 -16.891372680664062 0.679190516471863 0.000000000000000
0.809186339378357 -22.078231811523438 2.216863870620728 0.000000000000000
0.811887085437775 -15.857056617736816 0.759889185428619 0.000000000000000
0.812675595283508 -21.526748657226562 1.737019062042236 0.000000000000000
0.814876556396484 -18.829669952392578 1.410519242286682 0.000000000000000
0.815186023712158 -17.428153991699219 1.305737733840942 0.000000000000000
0.815834343433380 -16.972333908081055 1.107753157615662 0.000000000000000
0.834036231040955 -16.777021408081055 1.192290306091309 0.000000000000000
0.837590813636780 -22.023517608642578 2.698293924331665 0.000000000000000
0.839771628379822 -20.630119323730469 2.199260234832764 0.000000000000000
0.850127100944519 -19.885221481323242 2.436776638031006 0.000000000000000
0.863677799701691 -16.468946456909180 0.820999324321747 0.000000000000000
0.868207454681396 -18.561717987060547 0.817807018756866 0.000000000000000
0.874345719814301 -20.843835830688477 1.038580060005188 0.000000000000000
0.875949025154114 -15.293883323669434 1.456159949302673 0.000000000000000
0.890428543090820 -22.542539596557617 1.644835710525513 0.000000000000000
0.897014260292053 -16.398582458496094 1.749324917793274 0.000000000000000
0.899680435657501 -22.776763916015625 2.066441774368286 0.000000000000000
0.901801526546478 -22.153966903686523 0.720035493373871 0.000000000000000
0.902150690555573 -18.498699188232422 1.207417249679565 0.000000000000000
0.904015183448792 -16.526569366455078 0.537494957447052 0.000000000000000
0.910192012786865 -17.104705810546875 1.215796351432800 0.000000000000000
0.918929219245911 -17.268899917602539 0.960792064666748 0.000000000000000
0.921710550785065 -22.440671920776367 2.551005840301514 0.000000000000000
0.926423788070679 -17.318609237670898 0.996975421905518 0.000000000000000
0.937985479831696 -15.200935363769531 1.622224569320679 0.000000000000000
0.940856814384460 -19.818473815917969 0.873206853866577 0.000000000000000
0.945322096347809 -23.546693801879883 2.364628314971924 0.000000000000000
0.961606144905090 -18.540452957153320 1.425268054008484 0.000000000000000
0.963442862033844 -19.434843063354492 2.382334470748901 0.000000000000000
0.982812583446503 -20.320384979248047 1.561824440956116 0.000000000000000
0.989603936672211 -15.090351104736328 1.717674136161804 0.000000000000000
0.994230806827545 -17.082294464111328 1.822619318962097 0.000000000000000
0.996746838092804 -15.505957603454590 1.476978540420532 0.000000000000000
0.997629642486572 -26.975425720214844 1.188018560409546 0.000000000000000
0.998717129230499 -19.506053924560547 1.537170767784119 0.000000000000000
1.011817097663879 -28.322631835937500 2.011600494384766 0.000000000000000
1.012948632240295 -17.685867309570312 0.779642701148987 0.000000000000000
1.013486266136169 -18.847490310668945 1.121364951133728 0.000000000000000
1.014751672744751 -5.177495002746582 -0.000920835707802 0.000000000000000
1.017473936080933 -17.598091125488281 1.768778800964355 0.000000000000000
1.020139217376709 -15.685942649841309 1.674335598945618 0.000000000000000
1.029782176017761 -15.528701782226562 2.070993185043335 0.000000000000000
1.040131092071533 -19.533763885498047 1.615117430686951 0.000000000000000
1.040326476097107 -21.986633300781250 1.689807653427124 0.000000000000000
1.057514786720276 -16.912332534790039 0.876206636428833 0.000000000000000
1.065240621566772 -18.782649993896484 0.755601406097412 0.000000000000000
1.078195571899414 -21.217937469482422 2.131799697875977 0.000000000000000
1.079355359077454 -18.937952041625977 1.090405941009521 0.000000000000000
1.080600261688232 -16.615610122680664 1.053409218788147 0.000000000000000
1.088300108909607 -14.991765022277832 1.212023258209229 0.000000000000000
1.090203046798706 -16.082668304443359 0.957679390907288 0.000000000000000
1.091575026512146 -23.337173461914062 2.220767021179199 0.000000000000000
1.101739764213562 -16.074075698852539 1.019314289093018 0.000000000000000
1.103949904441833 -17.890544891357422 1.410694718360901 0.000000000000000
1.107495188713074 -15.197413444519043 1.022773146629333 0.000000000000000
1.107938885688782 -17.970502853393555 0.515494346618652 0.000000000000000
1.125610232353210 -15.944966316223145 1.957004308700562 0.000000000000000
1.128739953041077 -19.902290344238281 2.954303026199341 0.000000000000000
1.128761649131775 -15.832266807556152 1.508774161338806 0.000000000000000
1.129011034965515 -16.471956253051758 1.758645534515381 0.000000000000000
1.132732987403870 -23.746517181396484 2.532263278961182 0.000000000000000
1.136838316917419 -18.705013275146484 1.781307339668274 0.000000000000000
1.137228250503540 -16.655761718750000 0.670521974563599 0.000000000000000
1.137634873390198 -16.467178344726562 1.330975174903870 0.000000000000000
1.141577243804932 -18.354419708251953 1.411796092987061 0.000000000000000
1.146895051002502 -16.732879638671875 1.319995999336243 0.000000000000000
1.147535443305969 -7.508820533752441 -0.001325752120465 0.000000000000000
1.154361009597778 -21.321546554565430 2.142582416534424 0.000000000000000
1.156031608581543 -15.863447189331055 0.577669262886047 0.000000000000000
1.156275033950806 -28.564933776855469 1.258191704750061 0.000000000000000
1.164266109466553 -15.877032279968262 2.118480920791626 0.000000000000000
1.166253924369812 -17.932643890380859 0.583584487438202 0.000000000000000
1.166389584541321 -18.653514862060547 1.254490971565247 0.000000000000000
1.168807506561279 -8.708782196044922 -0.609814345836639 0.000000000000000
1.181490063667297 -19.322698593139648 1.942501664161682 0.000000000000000
1.183258891105652 -23.536722183227539 1.400104999542236 0.000000000000000
1.188674092292786 -20.703403472900391 3.073343038558960 0.000000000000000
1.188855171203613 -17.069906234741211 1.181531071662903 0.000000000000000
1.189219832420349 -16.318866729736328 0.846049606800079 0.000000000000000
1.191781282424927 -19.491006851196289 0.896980345249176 0.000000000000000
1.201049208641052 -23.562572479248047 1.038351178169250 0.000000000000000
1.202934622764587 -16.002264022827148 1.610231518745422 0.000000000000000
1.209077119827271 -24.050283432006836 1.802180767059326 0.000000000000000
1.212449312210083 -29.519222259521484 2.382252693176270 0.000000000000000
1.215360522270203 -16.440050125122070 2.018252134323120 0.000000000000000
1.216409802436829 -16.061513900756836 0.523083865642548 0.000000000000000
1.219236969947815 -20.816644668579102 1.681400895118713 0.000000000000000
1.223445057868958 -18.527410507202148 0.674358904361725 0.000000000000000
1.225130677223206 -19.268928527832031 2.363863229751587 0.000000000000000
1.234851360321045 -18.216520309448242 0.803561389446259 0.000000000000000
1.235128879547119 -10.175278663635254 -0.929212689399719 0.000000000000000
1.236639976501465 -23.763124465942383 1.459550380706787 0.000000000000000
1.236684322357178 -15.113133430480957 1.441397786140442 0.000000000000000
1.243587255477905 -9.419301986694336 -0.861318469047546 0.000000000000000
