# This PCD file was generated using the MATLAB® pcwrite function
# from Computer Vision Toolbox®.
# .PCD v.7 - Point Cloud Data file format
VERSION .7
FIELDS x y z intensity
SIZE 8 8 8 8
TYPE F F F F
COUNT 1 1 1 1
WIDTH 652
HEIGHT 1
VIEWPOINT 0 0 0 1 0 0 0
POINTS 652
DATA ascii
3.248517513275146 -10.882366180419922 0.893806099891663 0.000000000000000
3.250223875045776 -2.742959499359131 0.884619891643524 0.000000000000000
3.262362957000732 -12.375530242919922 1.216557979583740 0.000000000000000
3.266462326049805 -4.412920475006104 1.471127629280090 0.000000000000000
3.281697034835815 -2.871694803237915 0.745397090911865 0.000000000000000
3.283089399337769 -10.186519622802734 0.739008069038391 0.000000000000000
3.289754629135132 -9.308564186096191 0.377548456192017 0.000000000000000
3.298720121383667 -1.891641974449158 0.790944635868073 0.000000000000000
3.299454450607300 -11.341277122497559 0.929583430290222 0.000000000000000
3.315230131149292 -2.817692279815674 0.904983997344971 0.000000000000000
3.319107294082642 -1.295667648315430 0.252901494503021 0.000000000000000
3.325777053833008 -11.695368766784668 0.839581489562988 0.000000000000000
3.327855825424194 -2.932661533355713 0.758202195167542 0.000000000000000
3.329639434814453 -10.988080978393555 0.240502759814262 0.000000000000000
3.330134630203247 -2.297477245330811 0.384574621915817 0.000000000000000
3.339662790298462 -10.239492416381836 0.743692278862000 0.000000000000000
3.351655721664429 -11.811445236206055 0.233601734042168 0.000000000000000
3.351902008056641 -2.047776460647583 0.817010760307312 0.000000000000000
3.353309392929077 -12.450373649597168 1.089542746543884 0.000000000000000
3.359149694442749 -2.809581756591797 0.466458410024643 0.000000000000000
3.359471321105957 -9.562100410461426 2.108099460601807 0.000000000000000
3.360053777694702 -9.458061218261719 2.087735414505005 0.000000000000000
3.363315343856812 -10.950305938720703 0.967958509922028 0.000000000000000
3.363590002059937 -12.433225631713867 1.063469409942627 0.000000000000000
3.368063688278198 -1.572057008743286 0.995935738086700 0.000000000000000
3.371903657913208 -9.706781387329102 1.522891044616699 0.000000000000000
3.373002767562866 -12.228098869323730 0.998313665390015 0.000000000000000
3.377969264984131 -11.136367797851562 1.548627972602844 0.000000000000000
3.384514570236206 -13.161783218383789 1.069554567337036 0.000000000000000
3.388272047042847 -12.757356643676758 1.756518840789795 0.000000000000000
3.390130281448364 -2.786071777343750 0.650321960449219 0.000000000000000
3.390355587005615 -2.815626859664917 0.469424068927765 0.000000000000000
3.393845796585083 -2.825037240982056 0.654426813125610 0.000000000000000
3.395051479339600 -7.712555885314941 2.257937431335449 0.000000000000000
3.395396232604980 -11.076791763305664 1.315905451774597 0.000000000000000
3.397638082504272 -1.617243170738220 0.557670116424561 0.000000000000000
3.399218082427979 -12.971804618835449 1.784483790397644 0.000000000000000
3.404366016387939 -8.710180282592773 1.945186018943787 0.000000000000000
3.404777288436890 -1.450294375419617 0.769765913486481 0.000000000000000
3.405051231384277 -10.443684577941895 0.398953318595886 0.000000000000000
3.409513473510742 -3.043320894241333 0.950599789619446 0.000000000000000
3.416110754013062 -13.239619255065918 0.917763411998749 0.000000000000000
3.418835639953613 -11.131069183349609 0.804036378860474 0.000000000000000
3.419349908828735 -11.085848808288574 0.845832467079163 0.000000000000000
3.433101654052734 -2.015316486358643 0.346884816884995 0.000000000000000
3.435130596160889 -12.848780632019043 1.264251232147217 0.000000000000000
3.438033580780029 -13.324584007263184 0.288251489400864 0.000000000000000
3.441456317901611 -3.054178953170776 0.786508500576019 0.000000000000000
3.444246530532837 -11.798275947570801 0.848674416542053 0.000000000000000
3.445190429687500 -9.304573059082031 1.214742660522461 0.000000000000000
3.447750091552734 -3.513603448867798 1.023910880088806 0.000000000000000
3.472561836242676 -9.408744812011719 1.227867126464844 0.000000000000000
3.472716331481934 -13.426059722900391 0.050828766077757 0.000000000000000
3.477195262908936 -3.567198038101196 0.473526418209076 0.000000000000000
3.486542463302612 -12.167832374572754 3.391565084457397 0.000000000000000
3.494384050369263 -12.073353767395020 0.528989434242249 0.000000000000000
3.501013517379761 -13.441555023193359 3.721818208694458 0.000000000000000
3.507242441177368 -1.479497790336609 0.791759192943573 0.000000000000000
3.510177135467529 -7.541683673858643 2.228949785232544 0.000000000000000
3.510711669921875 -1.594820261001587 1.033205628395081 0.000000000000000
3.518940687179565 -2.542050361633301 0.308126360177994 0.000000000000000
3.526792049407959 -11.768838882446289 0.800954759120941 0.000000000000000
3.534864902496338 -11.677094459533691 0.983764231204987 0.000000000000000
3.538428068161011 -10.978765487670898 0.974694490432739 0.000000000000000
3.546302080154419 -1.888937950134277 0.835745811462402 0.000000000000000
3.546388626098633 -10.877182960510254 0.591573715209961 0.000000000000000
3.546750307083130 -2.083529710769653 0.391009420156479 0.000000000000000
3.548545122146606 -3.055572271347046 1.254754781723022 0.000000000000000
3.567286491394043 -1.916130423545837 0.842262327671051 0.000000000000000
3.571390628814697 -9.994284629821777 0.242701098322868 0.000000000000000
3.573138713836670 -11.235373497009277 0.224318549036980 0.000000000000000
3.575934648513794 -11.605014801025391 0.114452816545963 0.000000000000000
3.577315807342529 -3.040445089340210 0.446273088455200 0.000000000000000
3.579628467559814 -11.813064575195312 0.638255178928375 0.000000000000000
3.585698604583740 -12.927854537963867 0.049172099679708 0.000000000000000
3.606380939483643 -2.565574884414673 0.401226311922073 0.000000000000000
3.618828773498535 -9.018486022949219 0.222216919064522 0.000000000000000
3.619387388229370 -9.261270523071289 1.473633050918579 0.000000000000000
3.622897386550903 -1.468455076217651 0.340634614229202 0.000000000000000
3.624485492706299 8.682495117187500 0.251303851604462 0.000000000000000
3.625882863998413 -9.882525444030762 2.189556360244751 0.000000000000000
3.626049280166626 -9.182693481445312 2.053523540496826 0.000000000000000
3.628246545791626 -11.713005065917969 0.965046942234039 0.000000000000000
3.631349086761475 -12.452120780944824 0.870616257190704 0.000000000000000
3.634664535522461 -12.463489532470703 0.671304047107697 0.000000000000000
3.636131048202515 -1.187909007072449 0.227262049913406 0.000000000000000
3.636841058731079 -1.334206700325012 0.515505790710449 0.000000000000000
3.640902519226074 -11.719846725463867 1.502508878707886 0.000000000000000
3.643112897872925 -9.341210365295410 1.485947608947754 0.000000000000000
3.647545576095581 -1.407324194908142 0.285046696662903 0.000000000000000
3.650142908096313 -1.642813563346863 1.072546124458313 0.000000000000000
3.663787364959717 -2.220791578292847 0.891136407852173 0.000000000000000
3.664227724075317 -2.309452772140503 0.900911211967468 1.000000000000000
3.664998531341553 -1.585910439491272 0.425362616777420 0.000000000000000
3.688718080520630 8.836364746093750 0.108633950352669 0.000000000000000
3.697189092636108 -2.021971702575684 0.624520182609558 0.000000000000000
3.704558610916138 -2.284767866134644 0.645044326782227 0.000000000000000
3.706465005874634 -7.490244865417480 1.738286137580872 0.000000000000000
3.713357210159302 -2.623758316040039 0.396191745996475 0.000000000000000
3.716294765472412 -1.209577202796936 0.247251898050308 0.000000000000000
3.722119808197021 8.744153976440430 0.107817158102989 0.000000000000000
3.724750041961670 8.670428276062012 0.252051442861557 0.000000000000000
3.736043453216553 -14.141355514526367 1.467658996582031 0.000000000000000
3.741473197937012 -2.265113353729248 1.171932697296143 0.000000000000000
3.742092847824097 -2.376820564270020 0.922089934349060 0.000000000000000
3.747123718261719 -3.071465969085693 1.298236370086670 0.000000000000000
3.750692605972290 -2.047832012176514 0.633316218852997 0.000000000000000
3.754991054534912 8.657373428344727 0.252051442861557 0.000000000000000
3.757854938507080 -1.508515119552612 0.842262327671051 0.000000000000000
3.769871711730957 -11.427131652832031 0.807663977146149 0.000000000000000
3.770164012908936 -1.021787524223328 0.277257055044174 0.000000000000000
3.773453474044800 -11.767745018005371 1.240022182464600 0.000000000000000
3.777319431304932 -2.271796226501465 0.653253972530365 0.000000000000000
3.778405189514160 -1.109609246253967 0.332756787538528 0.000000000000000
3.789687395095825 -3.026134014129639 0.828967750072479 0.000000000000000
3.792923927307129 -1.669795751571655 0.254196882247925 0.000000000000000
3.797056198120117 -3.246546745300293 1.338612198829651 0.000000000000000
3.803267955780029 -11.539186477661133 0.231166794896126 0.000000000000000
3.811458110809326 -3.423549652099609 1.372776269912720 0.000000000000000
3.826746225357056 -2.055496454238892 0.325091093778610 0.000000000000000
3.832793951034546 -13.659387588500977 1.887901425361633 0.000000000000000
3.839132547378540 -2.129029512405396 0.440497398376465 0.000000000000000
3.844668149948120 -1.485384345054626 0.292550086975098 0.000000000000000
3.848271369934082 -1.515719056129456 0.706981480121613 0.000000000000000
3.858264684677124 -12.676765441894531 1.094079971313477 0.000000000000000
3.873049497604370 -0.776864528656006 0.375490188598633 0.000000000000000
3.875237941741943 -8.829711914062500 1.429066300392151 0.000000000000000
3.876291751861572 -12.176836967468262 0.660769701004028 0.000000000000000
3.876531124114990 -12.478321075439453 0.877045392990112 0.000000000000000
3.877257823944092 -13.916779518127441 3.004937887191772 0.000000000000000
3.880957841873169 -10.464641571044922 2.321516036987305 0.000000000000000
3.882627487182617 -1.404111981391907 0.245291173458099 0.000000000000000
3.887580633163452 -2.341808319091797 0.672605335712433 1.000000000000000
3.891151189804077 -12.320158004760742 1.066760897636414 0.000000000000000
3.893069982528687 -10.165118217468262 1.613197207450867 0.000000000000000
3.896523952484131 -1.957872867584229 0.745397090911865 0.000000000000000
3.900238990783691 -2.835562229156494 0.824250102043152 0.000000000000000
3.902252197265625 -7.817137718200684 1.817299246788025 0.000000000000000
3.905508279800415 -1.790637969970703 1.151227235794067 0.000000000000000
3.906993627548218 -0.769496321678162 0.378518313169479 0.000000000000000
3.911545276641846 -11.580113410949707 0.843990206718445 0.000000000000000
3.919210910797119 -2.829536676406860 0.826271951198578 0.000000000000000
3.923233747482300 -12.375842094421387 1.302722096443176 0.000000000000000
3.928684949874878 -13.285150527954102 1.843579649925232 0.000000000000000
3.933854579925537 -1.819445848464966 0.434906333684921 0.000000000000000
3.949686765670776 -2.187455177307129 0.285640329122543 0.000000000000000
3.953592300415039 -12.571314811706543 0.884546041488647 0.000000000000000
3.960383653640747 -12.260121345520020 0.047222223132849 0.000000000000000
3.962703704833984 -3.517510890960693 0.376095384359360 0.000000000000000
3.968314170837402 -3.166049718856812 0.752356290817261 0.000000000000000
3.989979982376099 -1.360553741455078 0.266698658466339 0.000000000000000
3.992752790451050 -1.286623239517212 0.420928597450256 0.000000000000000
4.004398822784424 -2.502614974975586 0.411469966173172 0.000000000000000
4.006345748901367 -11.614192962646484 0.233753904700279 0.000000000000000
4.013381004333496 -3.191014766693115 0.413438171148300 0.000000000000000
4.016354084014893 -2.639054298400879 0.313303977251053 0.000000000000000
4.021595478057861 -1.804087281227112 0.270359665155411 0.000000000000000
4.026662826538086 -12.585343360900879 1.197900652885437 0.000000000000000
4.028156280517578 -0.932046771049500 0.333386778831482 0.000000000000000
4.029032230377197 -14.168421745300293 1.960188388824463 0.000000000000000
4.033108711242676 -2.515176773071289 0.506283164024353 0.000000000000000
4.033527374267578 -4.833293437957764 0.932968676090240 0.000000000000000
4.044983863830566 -14.415593147277832 1.033839702606201 0.000000000000000
4.045472145080566 -3.500344753265381 0.607618808746338 0.000000000000000
4.049314498901367 -3.423632144927979 0.376378595829010 0.000000000000000
4.050170421600342 -6.865136623382568 2.135774850845337 0.000000000000000
4.052124977111816 -4.848693370819092 0.936487138271332 0.000000000000000
4.054310321807861 -14.070450782775879 1.948580265045166 0.000000000000000
4.057416915893555 -1.645236968994141 0.910685956478119 0.000000000000000
4.062211990356445 -3.309754848480225 1.089890718460083 0.000000000000000
4.063101768493652 -12.184306144714355 0.047075614333153 0.000000000000000
4.064809322357178 -4.972951889038086 1.097876906394958 0.000000000000000
4.073793411254883 -3.468786478042603 0.379777044057846 0.000000000000000
4.080641269683838 -1.671263813972473 0.917202532291412 0.000000000000000
4.092685699462891 -2.956518650054932 0.439942985773087 0.000000000000000
4.098790645599365 -0.962721347808838 0.339495092630386 0.000000000000000
4.120076656341553 -2.803997516632080 0.851882338523865 0.000000000000000
4.121309757232666 -2.975445032119751 0.460814356803894 0.000000000000000
4.122093200683594 -3.100696563720703 0.517574429512024 0.000000000000000
4.129270553588867 -2.848804950714111 1.043460369110107 0.000000000000000
4.131306648254395 -2.069796323776245 0.463660418987274 0.000000000000000
4.132164001464844 -2.872142314910889 1.046718716621399 0.000000000000000
4.135332584381104 -4.549773216247559 0.584432303905487 0.000000000000000
4.138623237609863 -3.420361995697021 1.116771459579468 0.000000000000000
4.140652179718018 -5.475717544555664 1.017410874366760 0.000000000000000
4.156394004821777 -3.503853559494019 1.456633687019348 0.000000000000000
4.162925243377686 -3.459933757781982 1.450421929359436 0.000000000000000
4.167321205139160 -4.552935123443604 0.586703419685364 0.000000000000000
4.177734375000000 -2.321287631988525 0.348455041646957 0.000000000000000
4.183986663818359 -4.694518089294434 0.630993545055389 0.000000000000000
4.185271739959717 -1.529273033142090 0.423562020063400 0.000000000000000
4.197627544403076 -1.694332599639893 0.347514361143112 0.000000000000000
4.200509071350098 -3.182701110839844 1.412116765975952 0.000000000000000
4.202015399932861 -2.904624700546265 0.757047474384308 0.000000000000000
4.209803104400635 -12.608097076416016 0.917835831642151 0.000000000000000
4.210138320922852 -13.879833221435547 1.225609302520752 0.000000000000000
4.220771312713623 -14.091795921325684 1.957550287246704 0.000000000000000
4.221604824066162 -2.640205860137939 0.295820236206055 1.000000000000000
4.224033355712891 -14.313290596008301 1.203343033790588 0.000000000000000
4.224431514739990 -2.961056470870972 0.467676043510437 0.000000000000000
4.227806091308594 -1.528942227363586 0.935122966766357 0.000000000000000
4.230799674987793 -1.852261424064636 0.402441918849945 0.000000000000000
4.239000797271729 -1.532990813255310 0.428482770919800 0.000000000000000
4.256835460662842 -6.240755558013916 1.571299910545349 0.000000000000000
4.259830951690674 -13.326931953430176 2.073524475097656 0.000000000000000
4.264007091522217 -3.705076694488525 0.512096226215363 0.000000000000000
4.270854949951172 -6.216921329498291 1.568856239318848 0.000000000000000
4.274230957031250 -3.408655166625977 1.137135624885559 0.000000000000000
4.275170803070068 -13.342793464660645 2.076456308364868 0.000000000000000
4.303187847137451 -3.581719160079956 0.532196760177612 0.000000000000000
4.318302631378174 -2.848693370819092 1.076043128967285 0.000000000000000
4.323448181152344 -12.370738983154297 1.743855357170105 0.000000000000000
4.324639320373535 -2.874589204788208 1.080115914344788 0.000000000000000
4.326736927032471 -2.193559646606445 0.718931257724762 0.000000000000000
4.345557212829590 -1.639622926712036 0.966076612472534 0.000000000000000
4.345769405364990 -2.696802377700806 1.063824653625488 0.000000000000000
4.348424911499023 -3.447508096694946 0.503067731857300 0.000000000000000
4.349544048309326 -2.496857881546021 0.857273995876312 0.000000000000000
4.350975990295410 -12.979601860046387 2.339980602264404 0.000000000000000
4.352026939392090 -13.294608116149902 0.992914497852325 0.000000000000000
4.356510162353516 -2.204832553863525 0.723622500896454 0.000000000000000
4.364382266998291 -3.765638351440430 0.522569239139557 0.000000000000000
4.364858627319336 -3.711371898651123 0.849112927913666 0.000000000000000
4.367823123931885 -10.406400680541992 3.024041891098022 0.000000000000000
4.382685661315918 -4.075636386871338 1.603642821311951 0.000000000000000
4.394962787628174 -13.641240119934082 0.961963951587677 0.000000000000000
4.398069858551025 -1.313545823097229 0.488912791013718 0.000000000000000
4.403046131134033 -2.756459951400757 0.470926284790039 0.000000000000000
4.411809444427490 -7.418824672698975 2.312807083129883 0.000000000000000
4.416374683380127 -4.135807514190674 1.621242642402649 0.000000000000000
4.420419216156006 -9.266768455505371 1.754985451698303 0.000000000000000
4.423874855041504 -3.578804731369019 1.183565974235535 0.000000000000000
4.430284023284912 -4.840230941772461 0.491069644689560 0.000000000000000
4.433446884155273 -1.794920444488525 0.293379426002502 0.000000000000000
4.440657138824463 -3.060087442398071 0.541136860847473 0.000000000000000
4.442119598388672 -14.184362411499023 3.982707500457764 0.000000000000000
4.443315982818604 -8.824572563171387 1.464250683784485 0.000000000000000
4.445297241210938 -1.234795570373535 0.683746933937073 0.000000000000000
4.448449611663818 -3.050252914428711 0.921973943710327 0.000000000000000
4.452481269836426 -12.598570823669434 1.778151988983154 0.000000000000000
4.453396320343018 -1.220316767692566 0.684333384037018 0.000000000000000
4.456705093383789 -10.134389877319336 2.302781105041504 0.000000000000000
4.465765476226807 -3.176940202713013 0.936801016330719 0.000000000000000
4.466325759887695 -3.400950193405151 0.452660173177719 0.000000000000000
4.466568946838379 -1.515674114227295 0.262054383754730 0.000000000000000
4.475236415863037 -3.064487457275391 1.128175377845764 0.000000000000000
4.482265472412109 -14.139307975769043 3.974425554275513 0.000000000000000
4.484764575958252 -2.507580280303955 0.515577614307404 0.000000000000000
4.489140033721924 -13.238241195678711 1.267239451408386 0.000000000000000
4.490873813629150 -9.571328163146973 1.566871285438538 0.000000000000000
4.491786479949951 -1.606700539588928 0.453464955091476 0.000000000000000
4.495892524719238 -9.510274887084961 1.798118829727173 0.000000000000000
4.496071338653564 -10.817609786987305 3.138957500457764 0.000000000000000
4.498395919799805 -9.753746032714844 2.878067970275879 0.000000000000000
4.501996994018555 -2.438690662384033 0.758806645870209 0.000000000000000
4.509309291839600 -2.168051958084106 0.855252146720886 0.000000000000000
4.511350631713867 -12.668641090393066 1.432421207427979 0.000000000000000
4.532734394073486 -1.612340331077576 0.295093655586243 0.000000000000000
4.534983158111572 -2.792559623718262 0.789299726486206 0.000000000000000
4.559900760650635 -12.764782905578613 1.659516453742981 0.000000000000000
4.564788341522217 -4.941446781158447 0.529442012310028 0.000000000000000
4.566155910491943 -2.096529245376587 1.045089602470398 0.000000000000000
4.566663265228271 -5.066811561584473 0.835105240345001 1.000000000000000
4.584854602813721 -1.711653351783752 0.465199053287506 0.000000000000000
4.599667072296143 -14.107708930969238 0.995984971523285 0.000000000000000
4.605291843414307 -13.390678405761719 3.794287443161011 0.000000000000000
4.612382411956787 -1.740298748016357 0.468605697154999 0.000000000000000
4.621288299560547 -3.923438072204590 1.624348402023315 0.000000000000000
4.623297691345215 -2.302875280380249 0.882884383201599 0.000000000000000
4.630270957946777 -2.785668134689331 0.513649404048920 0.000000000000000
4.633113861083984 -3.751554250717163 1.019023895263672 0.000000000000000
4.640267848968506 -1.536239147186279 0.443118542432785 0.000000000000000
4.647279262542725 -2.465594291687012 0.342968940734863 0.000000000000000
4.650944709777832 -2.602948427200317 0.789886116981506 0.000000000000000
4.654131889343262 -1.302872419357300 0.380369722843170 0.000000000000000
4.662263393402100 -12.808768272399902 1.451909899711609 0.000000000000000
4.664999485015869 -13.719822883605957 1.454080700874329 0.000000000000000
4.667954921722412 -12.679615974426270 1.439199924468994 0.000000000000000
4.680091381072998 -2.391626119613647 0.898385405540466 0.000000000000000
4.686583995819092 -2.651325464248657 0.351035743951797 0.000000000000000
4.696078777313232 -4.423658847808838 0.687189400196075 0.000000000000000
4.697722911834717 -13.150595664978027 1.152997016906738 0.000000000000000
4.706195831298828 -14.001154899597168 3.957860946655273 0.000000000000000
4.716325283050537 -3.182878494262695 0.843248844146729 0.000000000000000
4.716709613800049 -3.948119878768921 1.648159742355347 0.000000000000000
4.719236850738525 -2.146901130676270 0.492830872535706 0.000000000000000
4.720582008361816 -2.631544113159180 0.352336853742599 0.000000000000000
4.720779895782471 -2.433238029479980 0.907820880413055 0.000000000000000
4.723110675811768 -4.418108940124512 0.688884019851685 0.000000000000000
4.730502128601074 -13.693325042724609 0.972411334514618 0.000000000000000
4.739062309265137 -1.353356122970581 0.842446923255920 0.000000000000000
4.745927333831787 -12.810663223266602 1.127981901168823 0.000000000000000
4.754168510437012 -3.447897672653198 1.573619842529297 0.000000000000000
4.765211105346680 -5.077274322509766 0.588386774063110 0.000000000000000
4.770678043365479 -13.522961616516113 1.628743410110474 0.000000000000000
4.774285793304443 -2.291964054107666 0.461471378803253 0.000000000000000
4.785632133483887 -4.007658004760742 0.154733434319496 1.000000000000000
4.786422729492188 -12.782819747924805 1.126994609832764 0.000000000000000
4.790337085723877 -7.457135200500488 1.313544750213623 0.000000000000000
4.793088912963867 -13.827565193176270 1.791733264923096 0.000000000000000
4.798323154449463 -1.673676371574402 0.321503221988678 0.000000000000000
4.801093101501465 -3.622351646423340 0.891333997249603 0.000000000000000
4.809818744659424 -3.106136560440063 0.406398266553879 1.000000000000000
4.837429523468018 -3.101522684097290 0.396782845258713 0.000000000000000
4.845283508300781 -1.109807133674622 0.228328943252563 0.000000000000000
4.845962047576904 -3.725295066833496 1.637806892395020 0.000000000000000
4.863537788391113 -3.846645355224609 0.622207581996918 0.000000000000000
4.872814178466797 -5.005228042602539 0.509302794933319 0.000000000000000
4.877469062805176 -3.516965150833130 0.523973107337952 0.000000000000000
4.882742881774902 -1.346856951713562 0.388848662376404 0.000000000000000
4.885486125946045 -3.399042844772339 0.539542853832245 0.000000000000000
4.885840415954590 -2.408793687820435 0.474666208028793 0.000000000000000
4.886353969573975 -1.429055094718933 1.058937191963196 0.000000000000000
4.887403964996338 -4.343208312988281 0.870080888271332 0.000000000000000
4.901936054229736 -3.741174221038818 1.652300834655762 0.000000000000000
4.903233528137207 -1.431112170219421 1.368635177612305 0.000000000000000
4.905632972717285 -1.986088991165161 0.406300902366638 0.000000000000000
4.910884857177734 -9.668170928955078 2.255536079406738 0.000000000000000
4.917753219604492 -3.098552703857422 0.861427426338196 0.000000000000000
4.946392059326172 -3.724937915802002 0.588595986366272 0.000000000000000
4.952757358551025 -7.825715065002441 2.481557130813599 0.000000000000000
4.954594612121582 -3.550804853439331 1.041938424110413 0.000000000000000
4.955313682556152 -3.733283042907715 0.919481396675110 0.000000000000000
4.961608409881592 -3.750801801681519 0.501526892185211 0.000000000000000
4.962600708007812 -2.479779005050659 0.425896435976028 0.000000000000000
4.964530467987061 -4.011739730834961 1.710276365280151 0.000000000000000
4.967234134674072 -2.914375543594360 0.577878236770630 0.000000000000000
4.975187301635742 -1.823023438453674 0.376095384359360 0.000000000000000
4.980304241180420 -4.988655090332031 0.568397164344788 1.000000000000000
4.985805034637451 -5.111106395721436 0.716457188129425 0.000000000000000
4.995259761810303 -5.314576148986816 0.517697572708130 0.000000000000000
5.001458168029785 -2.445211648941040 0.825070321559906 0.000000000000000
5.025447845458984 -3.947682619094849 1.712346792221069 0.000000000000000
5.033401489257812 -3.202433347702026 0.411937773227692 0.000000000000000
5.056711673736572 -2.693684339523315 0.849112927913666 0.000000000000000
5.057106018066406 -3.804026365280151 0.388152211904526 0.000000000000000
5.068357467651367 -9.251410484313965 1.563352942466736 0.000000000000000
5.070745468139648 -5.201995372772217 1.511021971702576 0.000000000000000
5.092772006988525 -2.511698007583618 1.181122183799744 0.000000000000000
5.097042083740234 -4.296823024749756 0.668933033943176 0.000000000000000
5.098926544189453 -1.313830971717834 0.333120763301849 0.000000000000000
5.102196216583252 -2.691335201263428 1.545667409896851 0.000000000000000
5.105866432189941 -9.167406082153320 1.555143237113953 0.000000000000000
5.130084037780762 -1.678553819656372 0.922647893428802 0.000000000000000
5.137304782867432 -3.855514764785767 0.517922937870026 0.000000000000000
5.137890815734863 -2.690821886062622 1.206373810768127 0.000000000000000
5.139172077178955 -4.166968345642090 0.456851363182068 0.000000000000000
5.139376640319824 -3.021044492721558 1.019023895263672 0.000000000000000
5.142471790313721 -2.993110179901123 1.594325423240662 0.000000000000000
5.143261432647705 -3.215613842010498 0.898957252502441 0.000000000000000
5.146866321563721 -5.186906337738037 0.603323876857758 0.000000000000000
5.152357578277588 -5.354278564453125 0.745610713958740 0.000000000000000
5.153437137603760 -1.312732577323914 0.326194792985916 0.000000000000000
5.156446933746338 -3.224859237670898 1.265022635459900 0.000000000000000
5.159321308135986 -4.139460563659668 1.772392988204956 0.000000000000000
5.159580707550049 -2.979005336761475 1.596395969390869 0.000000000000000
5.160278320312500 -5.564407348632812 0.687971293926239 0.000000000000000
5.161798000335693 -2.053920030593872 0.949606180191040 0.000000000000000
5.168922424316406 -2.969141483306885 0.423107326030731 0.000000000000000
5.172444343566895 -3.152195453643799 0.476717501878738 0.000000000000000
5.190241336822510 -3.138247728347778 0.477345168590546 0.000000000000000
5.205222606658936 -9.361165046691895 1.587395429611206 0.000000000000000
5.208852767944336 -5.377184867858887 0.751201808452606 0.000000000000000
5.222154617309570 -3.243932962417603 0.448221415281296 0.000000000000000
5.223220825195312 -4.456009387969971 0.553608536720276 0.000000000000000
5.230987548828125 -3.849715232849121 1.740299344062805 0.000000000000000
5.233450889587402 -2.884016513824463 0.541709721088409 0.000000000000000
5.235369205474854 -5.280888557434082 0.844617187976837 0.000000000000000
5.238410949707031 -2.795171022415161 0.517375767230988 0.000000000000000
5.244569301605225 -2.975577831268311 0.642280578613281 0.000000000000000
5.267803192138672 -3.820404291152954 0.652958512306213 0.000000000000000
5.269352436065674 -3.849666357040405 1.748581647872925 0.000000000000000
5.279982566833496 -9.339180946350098 1.833838582038879 0.000000000000000
5.290454387664795 -4.259109973907471 0.468975275754929 0.000000000000000
5.296852588653564 -4.262432575225830 0.482580244541168 0.000000000000000
5.297676086425781 -3.642489433288574 0.493562251329422 0.000000000000000
5.301210403442383 -1.441399693489075 0.336970001459122 0.000000000000000
5.303900241851807 -11.292327880859375 3.342906951904297 0.000000000000000
5.305854320526123 -10.734635353088379 2.046809196472168 0.000000000000000
5.326028823852539 -2.841923236846924 0.428488224744797 0.000000000000000
5.328545093536377 -9.216675758361816 1.416717648506165 0.000000000000000
5.332008838653564 -2.884329319000244 1.624348402023315 0.000000000000000
5.339190483093262 -3.206967830657959 1.668865323066711 0.000000000000000
5.348984718322754 -2.641077518463135 1.019697785377502 0.000000000000000
5.362958908081055 -3.703526973724365 1.114051818847656 0.000000000000000
5.393683433532715 -1.218684911727905 1.150168657302856 0.000000000000000
5.396490573883057 -2.877585411071777 0.445894479751587 0.000000000000000
5.397223472595215 -11.301297187805176 2.604985475540161 0.000000000000000
5.399529933929443 -5.781784057617188 0.576783239841461 0.000000000000000
5.402359008789062 -11.111896514892578 2.569959163665771 0.000000000000000
5.403810024261475 -3.216078042984009 0.669818997383118 0.000000000000000
5.405180454254150 -4.345566272735596 1.185491323471069 0.000000000000000
5.412189483642578 -5.880354404449463 0.567258298397064 0.000000000000000
5.438459396362305 -3.096760988235474 0.567350625991821 0.000000000000000
5.439107418060303 -12.709375381469727 3.704218149185181 0.000000000000000
5.442365169525146 -2.870769262313843 0.617415189743042 0.000000000000000
5.443471431732178 -1.432943224906921 0.510290563106537 0.000000000000000
5.453907489776611 -1.636458039283752 1.184380531311035 0.000000000000000
5.455247879028320 -1.212596297264099 1.162387132644653 0.000000000000000
5.475398063659668 -3.064110994338989 0.469576001167297 0.000000000000000
5.475573062896729 -5.876356124877930 0.983363091945648 0.000000000000000
5.477470874786377 -1.894817709922791 1.205559253692627 0.000000000000000
5.488494396209717 -9.773985862731934 1.661282420158386 0.000000000000000
5.489378929138184 -1.668010234832764 1.193340778350830 0.000000000000000
5.522339820861816 -1.288340449333191 1.179493069648743 0.000000000000000
5.526679515838623 -8.422533035278320 1.721961498260498 0.000000000000000
5.527808666229248 -6.290179252624512 0.840259730815887 0.000000000000000
5.530884265899658 -5.875803947448730 0.603911161422729 0.000000000000000
5.549819469451904 -6.029466152191162 1.003292918205261 0.000000000000000
5.550149440765381 -1.029761433601379 1.512538552284241 0.000000000000000
5.556218147277832 -2.057953834533691 0.420558452606201 0.000000000000000
5.562440395355225 -11.543455123901367 2.665263414382935 0.000000000000000
5.568024158477783 -3.246915102005005 0.584324181079865 0.000000000000000
5.574813842773438 -1.736574649810791 1.214519500732422 0.000000000000000
5.582141399383545 -8.442656517028809 1.730049014091492 0.000000000000000
5.586307048797607 -8.259632110595703 1.704438567161560 0.000000000000000
5.587591171264648 -1.450044512748718 0.420880168676376 0.000000000000000
5.592370510101318 -2.782405614852905 1.299234390258789 0.000000000000000
5.595304012298584 -9.303321838378906 1.444682598114014 0.000000000000000
5.601024150848389 -9.239653587341309 1.437823295593262 0.000000000000000
5.602123737335205 -6.301843166351318 1.249626755714417 0.000000000000000
5.603288650512695 -10.258405685424805 1.555487394332886 0.000000000000000
5.604119777679443 -5.940504550933838 0.642736971378326 0.000000000000000
5.604342460632324 -9.276141166687012 2.903949737548828 0.000000000000000
5.608017444610596 -6.488245964050293 1.049957633018494 0.000000000000000
5.617431640625000 -2.745146274566650 0.544807076454163 0.000000000000000
5.620146751403809 -6.018019676208496 0.746475994586945 0.000000000000000
5.620958328247070 -6.441382884979248 0.857831656932831 0.000000000000000
5.638332843780518 -6.309677124023438 0.715022981166840 0.000000000000000
5.649907112121582 -5.836771965026855 0.772177457809448 0.000000000000000
5.651755809783936 -3.566543817520142 0.990436255931854 0.000000000000000
5.654992580413818 -1.340118646621704 1.208817601203918 0.000000000000000
5.657536983489990 -2.095481157302856 0.525709271430969 0.000000000000000
5.660908699035645 -2.133548259735107 0.607031762599945 0.000000000000000
5.665781497955322 -6.061792373657227 1.229689121246338 0.000000000000000
5.666462898254395 -6.454995155334473 0.816464006900787 0.000000000000000
5.666626930236816 -2.748877763748169 0.570962011814117 0.000000000000000
5.672406673431396 -1.469308257102966 0.438529670238495 0.000000000000000
5.679244518280029 -9.185080528259277 2.893596887588501 0.000000000000000
5.680687427520752 -1.675042033195496 0.630841553211212 0.000000000000000
5.685732364654541 -3.286894321441650 1.366028904914856 0.000000000000000
5.687526702880859 -3.231096267700195 1.752722620964050 0.000000000000000
5.694395065307617 -2.593644857406616 1.069570660591125 1.000000000000000
5.695505142211914 -4.222302913665771 1.899731874465942 0.000000000000000
5.700395107269287 -2.016600847244263 1.257691502571106 0.000000000000000
5.701658248901367 -2.430552005767822 1.059461236000061 0.000000000000000
5.701698780059814 -8.614979743957520 2.148827791213989 0.000000000000000
5.710560798645020 -3.227459907531738 0.465587973594666 0.000000000000000
5.710601329803467 -2.576995611190796 1.070918560028076 0.000000000000000
5.712658405303955 -3.305920124053955 1.128204941749573 0.000000000000000
5.713407039642334 -5.963300228118896 0.697846233844757 0.000000000000000
5.720384597778320 -13.496676445007324 3.927837848663330 0.000000000000000
5.726406574249268 -1.478923559188843 0.593453407287598 0.000000000000000
5.730383396148682 -6.579980373382568 1.491468071937561 0.000000000000000
5.741600990295410 -2.035237789154053 1.041264414787292 0.000000000000000
5.746170520782471 -1.509837985038757 0.564749360084534 0.000000000000000
5.746870040893555 -2.787803649902344 1.091811299324036 0.000000000000000
5.752251625061035 -3.196141719818115 1.124835133552551 0.000000000000000
5.754192829132080 -13.336729049682617 3.021229267120361 0.000000000000000
5.761500835418701 -6.256373405456543 0.771033406257629 0.000000000000000
5.765981674194336 -9.893438339233398 1.523828864097595 0.000000000000000
5.771978378295898 -1.172119379043579 0.463536381721497 0.000000000000000
5.772964954376221 -6.307596206665039 1.267218828201294 0.000000000000000
5.773416519165039 -6.464478015899658 1.061137795448303 0.000000000000000
5.777040481567383 -10.138093948364258 1.729305148124695 0.000000000000000
5.778614997863770 -6.609698772430420 0.997199058532715 0.000000000000000
5.800710201263428 -13.316561698913574 3.021229267120361 0.000000000000000
5.804639339447021 -2.145358800888062 0.917135775089264 0.000000000000000
5.813847541809082 -6.206078052520752 0.905802011489868 0.000000000000000
5.833114147186279 -3.063232421875000 0.556727766990662 0.000000000000000
5.833289623260498 -1.559097647666931 0.894852399826050 0.000000000000000
5.835142612457275 -3.423594474792480 1.812768578529358 0.000000000000000
5.838466167449951 -6.388112068176270 0.614270269870758 0.000000000000000
5.838837623596191 -1.686839461326599 0.900716423988342 0.000000000000000
5.851134300231934 -3.277866125106812 1.146401762962341 0.000000000000000
5.861965179443359 -6.456688880920410 1.292434215545654 0.000000000000000
5.865417480468750 -1.067090272903442 1.597431302070618 0.000000000000000
5.882771015167236 -6.654409408569336 1.847438097000122 0.000000000000000
5.887719631195068 -3.325416803359985 1.155837178230286 1.000000000000000
5.888435363769531 -6.875495433807373 1.108288764953613 0.000000000000000
5.897015571594238 -2.339676380157471 1.699923515319824 0.000000000000000
5.915867805480957 -9.642860412597656 3.031288862228394 0.000000000000000
5.922926902770996 -2.852549314498901 0.874829709529877 0.000000000000000
5.928139686584473 -6.395984172821045 1.292434215545654 0.000000000000000
5.932138919830322 -2.854180574417114 0.573627293109894 0.000000000000000
5.944434165954590 -3.404547691345215 1.835544824600220 0.000000000000000
5.944818496704102 -6.480587959289551 0.936729848384857 0.000000000000000
5.945874691009521 -2.173998355865479 0.938246250152588 0.000000000000000
5.946904182434082 -6.362118721008301 0.827819585800171 0.000000000000000
5.951291084289551 -2.248568058013916 0.576740264892578 0.000000000000000
5.953251838684082 -2.337969303131104 0.641776382923126 0.000000000000000
5.959969520568848 -2.913569927215576 1.379876613616943 0.000000000000000
5.962778568267822 -6.299732208251953 0.615686237812042 0.000000000000000
5.968618392944336 -5.970284938812256 0.550363659858704 1.000000000000000
5.981777191162109 -6.554556846618652 1.180861830711365 0.000000000000000
5.982479572296143 -6.364458084106445 1.069401264190674 0.000000000000000
6.005633831024170 -1.605161070823669 0.541681945323944 0.000000000000000
6.012866497039795 -6.613617420196533 1.324686408042908 0.000000000000000
6.014728069305420 -2.416442155838013 1.107986211776733 1.000000000000000
6.025935173034668 -2.080897331237793 1.708205819129944 0.000000000000000
6.032944202423096 -3.026606559753418 0.641588568687439 0.000000000000000
6.038296222686768 -1.512122392654419 0.489898651838303 0.000000000000000
6.056369781494141 -1.886580944061279 0.602979719638824 0.000000000000000
6.070236206054688 -4.059220314025879 1.956672072410583 0.000000000000000
6.098495006561279 -6.350127220153809 1.504947185516357 0.000000000000000
6.098727226257324 -1.553525805473328 0.483152121305466 0.000000000000000
6.100466728210449 -2.303227663040161 0.966393709182739 0.000000000000000
6.106437206268311 -2.273268938064575 0.512808680534363 0.000000000000000
6.109025955200195 -10.405091285705566 1.477232098579407 0.000000000000000
6.118889331817627 -6.208393573760986 0.736578047275543 0.000000000000000
6.120475292205811 -2.172905445098877 0.864276885986328 0.000000000000000
6.138384342193604 -4.075398921966553 1.974271774291992 0.000000000000000
6.148808002471924 -6.377962112426758 0.714354276657104 0.000000000000000
6.154006958007812 -1.908396959304810 0.407624691724777 0.000000000000000
6.154747486114502 -2.368873596191406 0.661744475364685 0.000000000000000
6.176649093627930 -2.165210247039795 0.593352675437927 0.000000000000000
6.180225849151611 -1.753372311592102 0.505590438842773 0.000000000000000
6.196395397186279 -2.341175556182861 1.132248640060425 0.000000000000000
6.202141284942627 -2.984089136123657 0.488527506589890 0.000000000000000
6.227338314056396 -1.276703357696533 0.438941031694412 0.000000000000000
6.230606555938721 -6.257633686065674 0.769466161727905 1.000000000000000
6.235281467437744 -5.055720806121826 0.678312003612518 0.000000000000000
6.242700576782227 -2.635479450225830 0.614298760890961 0.000000000000000
6.260921955108643 -2.239515781402588 0.497637122869492 0.000000000000000
6.265148162841797 -1.591028571128845 0.508728802204132 0.000000000000000
6.274832248687744 -2.233256816864014 0.511320650577545 0.000000000000000
6.278215408325195 -2.127257347106934 0.600936591625214 0.000000000000000
6.282380104064941 -2.088773965835571 0.508258879184723 0.000000000000000
6.283404350280762 -1.701041102409363 1.112703919410706 0.000000000000000
6.288705825805664 -5.563581466674805 0.894362986087799 0.000000000000000
6.307234287261963 -8.409002304077148 1.796770811080933 0.000000000000000
6.316202640533447 -7.691113471984863 1.324380397796631 0.000000000000000
6.318776607513428 -2.170302867889404 0.889075994491577 0.000000000000000
6.320547103881836 -7.670709133148193 2.067371129989624 0.000000000000000
6.323567390441895 -4.166615486145020 2.029141426086426 0.000000000000000
6.331724166870117 -10.932468414306641 1.546743154525757 0.000000000000000
6.332083702087402 -2.183896303176880 0.713456809520721 0.000000000000000
6.332664966583252 -1.687595844268799 0.490472614765167 0.000000000000000
6.350779533386230 -1.993744373321533 0.318564534187317 0.000000000000000
6.350809097290039 -8.405810356140137 1.800814628601074 0.000000000000000
6.357807159423828 -2.121248483657837 0.672527313232422 0.000000000000000
6.368191719055176 -7.729082107543945 1.484188318252563 0.000000000000000
6.380506515502930 -2.397130727767944 0.523261725902557 0.000000000000000
6.393882274627686 -0.206074416637421 0.540561378002167 0.000000000000000
6.396114826202393 -7.659986495971680 1.705786585807800 0.000000000000000
6.456775188446045 -1.592987775802612 0.708372771739960 0.000000000000000
6.463056564331055 -7.369184970855713 1.675458431243896 0.000000000000000
6.474615573883057 -7.781563282012939 1.149780869483948 0.000000000000000
6.478203773498535 -7.319959640502930 0.980835497379303 0.000000000000000
6.484731197357178 -5.865779399871826 0.877400457859039 0.000000000000000
6.492224216461182 -2.195223569869995 1.425492405891418 0.000000000000000
6.492864608764648 -10.772692680358887 1.539937973022461 0.000000000000000
6.495224475860596 -1.613181471824646 0.606714844703674 0.000000000000000
6.495753765106201 -2.172440052032471 1.424677848815918 0.000000000000000
6.495803833007812 -8.228656768798828 2.180595874786377 0.000000000000000
6.496813774108887 -8.778015136718750 1.618474960327148 0.000000000000000
6.497290611267090 -7.968168258666992 1.368174552917480 0.000000000000000
6.506783485412598 -1.855224967002869 1.002750754356384 0.000000000000000
6.515688896179199 -7.693374633789062 1.723309516906738 0.000000000000000
6.516370296478271 -3.652929306030273 1.107130646705627 0.000000000000000
6.523482799530029 -8.115315437316895 1.385586738586426 0.000000000000000
6.528001785278320 -1.586407303810120 0.715575158596039 0.000000000000000
6.529402732849121 -7.568656921386719 1.330184340476990 0.000000000000000
6.541164875030518 -7.671725273132324 1.723309516906738 0.000000000000000
6.542809963226318 -2.288951873779297 1.441783666610718 0.000000000000000
6.546352386474609 -7.521167755126953 1.477738022804260 0.000000000000000
6.551042079925537 -8.019216537475586 1.534619092941284 0.000000000000000
6.554799079895020 -1.320012450218201 0.358610808849335 0.000000000000000
6.564171314239502 -7.226081848144531 1.668718934059143 0.000000000000000
6.569216251373291 -8.940940856933594 1.644276618957520 0.000000000000000
6.572290420532227 -2.292443990707397 0.741418898105621 0.000000000000000
6.592262744903564 -7.869732379913330 1.166032195091248 0.000000000000000
6.595927238464355 -5.771857738494873 0.639028131961823 0.000000000000000
6.604743480682373 -5.872629642486572 1.082039713859558 0.000000000000000
6.613137245178223 -2.309540271759033 0.702878892421722 0.000000000000000
6.623837471008301 -4.665853977203369 2.170974254608154 0.000000000000000
6.627916812896729 -2.770886421203613 1.227950692176819 0.000000000000000
6.647237300872803 -2.531821012496948 1.905943512916565 0.000000000000000
6.653457641601562 -8.308437347412109 2.213993310928345 0.000000000000000
6.664328098297119 -1.775981068611145 0.655593752861023 0.000000000000000
6.674396514892578 -11.134894371032715 3.478528022766113 0.000000000000000
6.675775527954102 -7.962085723876953 1.272101521492004 0.000000000000000
6.686273574829102 -0.192137062549591 0.890131294727325 0.000000000000000
6.689624786376953 -7.891484260559082 0.983390569686890 0.000000000000000
6.689930915832520 -4.679295539855957 2.187538623809814 0.000000000000000
6.702475547790527 -7.879839420318604 1.376616835594177 0.000000000000000
6.711883544921875 -7.835316658020020 1.372923374176025 0.000000000000000
6.713037014007568 -7.039043903350830 1.662653207778931 0.000000000000000
6.718177795410156 -4.113034248352051 0.543923139572144 0.000000000000000
6.725244522094727 -7.887620449066162 0.939685761928558 0.000000000000000
6.727764129638672 -7.204049587249756 1.684893846511841 0.000000000000000
6.729563236236572 -8.404075622558594 1.595605134963989 0.000000000000000
6.732346057891846 -2.491439104080200 0.650773882865906 0.000000000000000
6.741690158843994 -1.375533938407898 0.568105280399323 0.000000000000000
6.748685836791992 -7.262704372406006 0.994813263416290 0.000000000000000
6.749224185943604 -1.851190924644470 1.196274638175964 0.000000000000000
6.767867565155029 -8.850721359252930 1.482672810554504 0.000000000000000
6.767985343933105 -0.908091962337494 0.458345949649811 0.000000000000000
6.775276660919189 -7.022378444671631 1.298525929450989 0.000000000000000
6.775403976440430 -1.707899212837219 0.633439183235168 0.000000000000000
6.780457496643066 -2.455562353134155 1.232668399810791 0.000000000000000
6.801084995269775 -8.432892799377441 1.605574011802673 0.000000000000000
6.814465522766113 -8.077546119689941 1.200340509414673 0.000000000000000
6.826105594635010 -2.445175170898438 1.239408016204834 0.000000000000000
6.826498508453369 -3.307704925537109 1.577816367149353 0.000000000000000
6.835279941558838 -3.253234863281250 1.574558138847351 0.000000000000000
6.850886821746826 -9.961026191711426 3.239379405975342 0.000000000000000
6.851945400238037 -7.450911998748779 0.659915924072266 0.000000000000000
6.859126567840576 -7.265505313873291 1.134883880615234 0.000000000000000
6.865057945251465 -1.936663866043091 0.396298974752426 0.000000000000000
6.872650146484375 -7.285177707672119 1.066795825958252 0.000000000000000
6.874772071838379 -7.942614555358887 0.998531341552734 0.000000000000000
6.885195255279541 -5.422784805297852 1.298884749412537 0.000000000000000
6.886238098144531 -8.137807846069336 1.305155754089355 0.000000000000000
6.900774478912354 -0.737358272075653 0.332140803337097 0.000000000000000
6.909634113311768 -7.903381824493408 0.846487343311310 0.000000000000000
6.914251804351807 -7.904207706451416 1.285712122917175 0.000000000000000
6.933361530303955 -8.429408073425293 1.336265563964844 1.000000000000000
6.943692684173584 -8.733172416687012 2.320701599121094 0.000000000000000
6.945272445678711 -5.423118591308594 1.305921554565430 0.000000000000000
6.948680400848389 -8.227311134338379 1.433074474334717 0.000000000000000
6.949264049530029 -8.703946113586426 1.482145071029663 0.000000000000000
6.951855182647705 -8.115454673767090 0.902956485748291 0.000000000000000
6.970295429229736 -2.280667543411255 0.664858341217041 0.000000000000000
6.977594375610352 -9.741169929504395 1.594532728195190 0.000000000000000
6.981895446777344 -9.660010337829590 1.459246754646301 0.000000000000000
6.984737396240234 -2.004292488098145 0.557860076427460 0.000000000000000
6.984795570373535 -7.877680778503418 1.195826292037964 0.000000000000000
6.999475479125977 -2.923925399780273 1.577816367149353 0.000000000000000
7.003691673278809 -8.042072296142578 0.966771185398102 0.000000000000000
7.024679660797119 -1.940064668655396 0.348776519298553 0.000000000000000
7.052648544311523 -4.946393013000488 0.611438214778900 0.000000000000000
7.060406208038330 -3.390661716461182 1.629134058952332 0.000000000000000
7.097338199615479 -4.799118995666504 0.591592192649841 0.000000000000000
7.101066589355469 -7.596865653991699 0.778248369693756 0.000000000000000
7.104429244995117 -6.769240379333496 0.829197645187378 0.000000000000000
7.107670307159424 -12.341170310974121 3.816028118133545 0.000000000000000
7.107903003692627 -7.809018135070801 2.829409837722778 0.000000000000000
7.108557224273682 -2.322336196899414 0.710857450962067 0.000000000000000
7.109513759613037 -2.167356252670288 0.412940859794617 0.000000000000000
7.126107215881348 -12.575373649597168 3.872968435287476 0.000000000000000
7.126257896423340 -7.731310844421387 0.786905527114868 0.000000000000000
7.134401321411133 -2.806288719177246 0.455472975969315 0.000000000000000
7.135833740234375 -7.343579292297363 1.253630042076111 0.000000000000000
7.137860298156738 -11.389318466186523 1.992014169692993 0.000000000000000
7.139121055603027 -7.509402751922607 1.176866412162781 0.000000000000000
7.167008399963379 -2.230079174041748 0.301470041275024 0.000000000000000
7.173791408538818 -6.742765903472900 1.310133934020996 0.000000000000000
7.175858020782471 -1.987479090690613 0.456721723079681 0.000000000000000
7.182308673858643 -7.025581836700439 0.422855168581009 1.000000000000000
7.190664768218994 -7.118487834930420 0.776778817176819 1.000000000000000
7.192536830902100 -6.980284214019775 0.952730655670166 1.000000000000000
