# This PCD file was generated using the MATLAB® pcwrite function
# from Computer Vision Toolbox®.
# .PCD v.7 - Point Cloud Data file format
VERSION .7
FIELDS x y z intensity
SIZE 8 8 8 8
TYPE F F F F
COUNT 1 1 1 1
WIDTH 638
HEIGHT 1
VIEWPOINT 0 0 0 1 0 0 0
POINTS 638
DATA ascii
13.392800331115723 -20.144052505493164 0.320885449647903 1.000000000000000
13.396088600158691 -14.537042617797852 2.105629682540894 0.000000000000000
13.401202201843262 -20.897775650024414 -0.719459533691406 1.000000000000000
13.401528358459473 -20.169391632080078 -0.097208999097347 1.000000000000000
13.414137840270996 -19.736824035644531 -0.095795981585979 1.000000000000000
13.415856361389160 -16.079944610595703 -0.969265103340149 0.000000000000000
13.429257392883301 -20.175203323364258 -0.004229980055243 1.000000000000000
13.429898262023926 -7.998837947845459 1.775456666946411 0.000000000000000
13.436926841735840 -16.117200851440430 0.923506438732147 1.000000000000000
13.437436103820801 -15.991992950439453 -0.003645643824711 0.000000000000000
13.438008308410645 -18.896535873413086 2.204112291336060 1.000000000000000
13.448336601257324 -15.815157890319824 1.153394222259521 1.000000000000000
13.458177566528320 -16.914398193359375 0.452775120735168 1.000000000000000
13.462744712829590 -8.372649192810059 1.155893445014954 0.000000000000000
13.466194152832031 -14.591131210327148 1.064906954765320 0.000000000000000
13.467952728271484 -6.945971488952637 1.134087324142456 0.000000000000000
13.468780517578125 -7.803810119628906 2.660784482955933 0.000000000000000
13.470479965209961 -6.794398307800293 2.007676124572754 0.000000000000000
13.479687690734863 -15.958962440490723 -0.766000092029572 0.000000000000000
13.482003211975098 -15.309558868408203 2.497538089752197 0.000000000000000
13.485025405883789 -16.083364486694336 1.732951641082764 0.000000000000000
13.491021156311035 -12.014993667602539 1.177752137184143 0.000000000000000
13.491915702819824 -7.911862373352051 0.778636693954468 0.000000000000000
13.493623733520508 -21.308555603027344 3.356328010559082 0.000000000000000
13.497160911560059 -6.580380439758301 1.152767896652222 0.000000000000000
13.500148773193359 -7.380094051361084 1.340662956237793 0.000000000000000
13.503843307495117 -12.815563201904297 2.279283046722412 0.000000000000000
13.505278587341309 -17.492078781127930 2.353899002075195 1.000000000000000
13.510560035705566 -6.579619407653809 1.999761581420898 0.000000000000000
13.511963844299316 -16.383167266845703 1.794461727142334 0.000000000000000
13.516296386718750 -16.157283782958984 -1.137170076370239 0.000000000000000
13.518487930297852 -10.832674980163574 2.305266141891479 0.000000000000000
13.522034645080566 -21.629695892333984 -0.886322736740112 0.000000000000000
13.522495269775391 -10.512578964233398 2.096998691558838 0.000000000000000
13.532034873962402 -16.919769287109375 -1.420032978057861 0.000000000000000
13.534394264221191 -10.462832450866699 1.445538759231567 0.000000000000000
13.543827056884766 -7.895675182342529 1.573090791702271 0.000000000000000
13.572566986083984 -16.370897293090820 1.345363497734070 1.000000000000000
13.577878952026367 -9.481223106384277 1.143506050109863 0.000000000000000
13.585054397583008 -19.230237960815430 -0.727583944797516 0.000000000000000
13.593736648559570 -7.008440017700195 1.332676529884338 0.000000000000000
13.597216606140137 -17.738819122314453 -0.647733747959137 1.000000000000000
13.597734451293945 -8.000728607177734 1.499689579010010 0.000000000000000
13.605456352233887 -9.982505798339844 1.529788136482239 0.000000000000000
13.607672691345215 -20.793119430541992 1.045868515968323 1.000000000000000
13.616488456726074 -16.171245574951172 1.418970584869385 1.000000000000000
13.619613647460938 -13.761067390441895 2.576473712921143 0.000000000000000
13.628266334533691 -16.478425979614258 -0.085840649902821 0.000000000000000
13.631084442138672 -7.902935028076172 1.118373990058899 0.000000000000000
13.636816978454590 -7.470269680023193 1.103647351264954 0.000000000000000
13.641839027404785 -8.423397064208984 2.376108646392822 0.000000000000000
13.662322998046875 -17.695484161376953 0.039018560200930 0.000000000000000
13.662976264953613 -9.613905906677246 1.121353745460510 0.000000000000000
13.664072036743164 -9.313311576843262 2.826578140258789 0.000000000000000
13.669463157653809 -18.999267578125000 -0.543411135673523 0.000000000000000
13.676990509033203 -19.665424346923828 0.317755103111267 1.000000000000000
13.678452491760254 -17.725961685180664 0.899273216724396 1.000000000000000
13.682033538818359 -15.752699851989746 1.818106889724731 0.000000000000000
13.686263084411621 -14.468769073486328 1.490523219108582 0.000000000000000
13.688937187194824 -7.275778770446777 1.190121769905090 0.000000000000000
13.693096160888672 -15.527398109436035 1.967916846275330 0.000000000000000
13.695865631103516 -16.265514373779297 0.118759974837303 0.000000000000000
13.705499649047852 -15.610531806945801 -1.201417922973633 0.000000000000000
13.708028793334961 -6.360728740692139 1.436477065086365 0.000000000000000
13.711308479309082 -17.003536224365234 0.751326560974121 1.000000000000000
13.719773292541504 -17.040189743041992 1.004904389381409 1.000000000000000
13.722428321838379 -8.456628799438477 1.404553532600403 0.000000000000000
13.736697196960449 -14.041172981262207 3.357656717300415 0.000000000000000
13.738939285278320 -10.550642967224121 2.120817422866821 0.000000000000000
13.740429878234863 -9.688856124877930 1.790844321250916 0.000000000000000
13.745590209960938 -8.374545097351074 1.080367684364319 0.000000000000000
13.751146316528320 -13.206237792968750 2.334211349487305 0.000000000000000
13.762789726257324 -14.166433334350586 1.790531039237976 0.000000000000000
13.764031410217285 -9.766410827636719 0.321107268333435 0.000000000000000
13.765557289123535 -15.580489158630371 1.315309405326843 0.000000000000000
13.802687644958496 -6.719499588012695 1.000803112983704 0.000000000000000
13.803299903869629 -16.048948287963867 1.420845746994019 0.000000000000000
13.806796073913574 -9.877042770385742 1.808214664459229 0.000000000000000
13.812082290649414 -15.767416000366211 1.992520570755005 0.000000000000000
13.817568778991699 -23.475378036499023 0.465964853763580 1.000000000000000
13.818349838256836 -16.932106018066406 0.625736594200134 0.000000000000000
13.819039344787598 -16.875150680541992 0.163695693016052 0.000000000000000
13.820651054382324 -8.142285346984863 2.377281665802002 0.000000000000000
13.822772979736328 -6.016624927520752 1.845689535140991 0.000000000000000
13.849781036376953 -5.956349372863770 1.512786984443665 0.000000000000000
13.851469993591309 -6.135812282562256 1.133788704872131 0.000000000000000
13.853382110595703 -10.205759048461914 1.354204058647156 0.000000000000000
13.863087654113770 -18.252035140991211 1.715310692787170 1.000000000000000
13.886290550231934 -7.936025142669678 1.042698383331299 0.000000000000000
13.891201019287109 -7.223290443420410 2.320400476455688 0.000000000000000
13.891785621643066 -8.026569366455078 1.015020728111267 0.000000000000000
13.906290054321289 -15.346185684204102 0.871613144874573 0.000000000000000
13.908909797668457 -6.253246307373047 1.732119798660278 0.000000000000000
13.914275169372559 -7.237758159637451 1.173790812492371 0.000000000000000
13.930274963378906 -7.538042545318604 1.246558189392090 0.000000000000000
13.938858032226562 -21.286207199096680 -0.053289748728275 1.000000000000000
13.940421104431152 -14.085207939147949 1.674561500549316 0.000000000000000
13.951332092285156 -5.977242946624756 1.018754959106445 0.000000000000000
13.952894210815430 -12.270001411437988 2.110414505004883 0.000000000000000
13.955869674682617 -9.463762283325195 1.131801128387451 0.000000000000000
13.962185859680176 -11.550936698913574 0.832372844219208 0.000000000000000
13.962721824645996 -16.295190811157227 -0.745616734027863 1.000000000000000
13.983749389648438 -9.833778381347656 -0.659722387790680 0.000000000000000
14.000148773193359 -16.661682128906250 2.183717012405396 0.000000000000000
14.004210472106934 -7.632490158081055 1.224413990974426 0.000000000000000
14.011604309082031 -7.836918830871582 1.263505339622498 0.000000000000000
14.014699935913086 -9.719446182250977 -0.166700050234795 0.000000000000000
14.027476310729980 -10.367669105529785 2.981588363647461 0.000000000000000
14.028229713439941 -5.899229526519775 1.728508472442627 0.000000000000000
14.035676002502441 -22.437370300292969 -0.868710935115814 1.000000000000000
14.037265777587891 -7.858349800109863 1.614225268363953 0.000000000000000
14.041698455810547 -11.603511810302734 1.433604717254639 0.000000000000000
14.046114921569824 -18.345661163330078 0.350866824388504 0.000000000000000
14.052284240722656 -5.372228622436523 1.430042266845703 0.000000000000000
14.063145637512207 -18.104639053344727 2.300330877304077 1.000000000000000
14.064753532409668 -6.534012317657471 1.405917167663574 0.000000000000000
14.068611145019531 -14.585785865783691 1.438395023345947 0.000000000000000
14.071930885314941 -15.734174728393555 2.006525516510010 0.000000000000000
14.074180603027344 -9.313376426696777 -0.618838906288147 1.000000000000000
14.075082778930664 -14.776160240173340 1.527241468429565 0.000000000000000
14.078589439392090 -20.338129043579102 0.470627605915070 0.000000000000000
14.088609695434570 -6.049740314483643 1.206701040267944 0.000000000000000
14.093286514282227 -12.420969009399414 1.884993433952332 0.000000000000000
14.098186492919922 0.002706662518904 -1.278073787689209 0.000000000000000
14.100156784057617 -15.724815368652344 -1.221510887145996 0.000000000000000
14.102174758911133 -9.087883949279785 0.802912652492523 0.000000000000000
14.107321739196777 -13.584317207336426 1.579166650772095 0.000000000000000
14.112161636352539 -9.997882843017578 1.194206118583679 0.000000000000000
14.112331390380859 -5.674264907836914 1.325384616851807 0.000000000000000
14.122764587402344 -6.122882366180420 1.639594912528992 0.000000000000000
14.131371498107910 -10.097681999206543 1.972729682922363 0.000000000000000
14.131446838378906 -19.473127365112305 2.945714712142944 0.000000000000000
14.133214950561523 -12.516329765319824 1.522262573242188 0.000000000000000
14.158648490905762 -6.239395141601562 1.894298553466797 0.000000000000000
14.160758018493652 -16.581287384033203 2.669614553451538 0.000000000000000
14.167338371276855 -7.900993347167969 1.057530879974365 0.000000000000000
14.181172370910645 -17.853105545043945 0.740418732166290 1.000000000000000
14.192916870117188 -9.451905250549316 -0.822058856487274 0.000000000000000
14.193819999694824 -15.243395805358887 2.550036191940308 0.000000000000000
14.210620880126953 -20.012550354003906 3.005017757415771 1.000000000000000
14.212738037109375 -9.710546493530273 1.155374646186829 0.000000000000000
14.216922760009766 -9.680685043334961 1.287229418754578 0.000000000000000
14.220358848571777 -12.026495933532715 1.770330190658569 0.000000000000000
14.221252441406250 -5.281491756439209 2.248272657394409 0.000000000000000
14.225685119628906 -6.531356811523438 1.570694684982300 0.000000000000000
14.233991622924805 -7.032403945922852 1.509152650833130 0.000000000000000
14.243630409240723 -7.673893928527832 1.148393750190735 0.000000000000000
14.243942260742188 -18.639738082885742 2.044154882431030 1.000000000000000
14.246143341064453 -9.950078964233398 1.166357874870300 0.000000000000000
14.250074386596680 -21.761468887329102 -0.454041808843613 1.000000000000000
14.250113487243652 -8.423463821411133 1.880187273025513 0.000000000000000
14.255273818969727 -5.936233043670654 1.245136857032776 0.000000000000000
14.256225585937500 -15.342597007751465 2.564132690429688 0.000000000000000
14.257319450378418 -0.118942596018314 -1.375383019447327 0.000000000000000
14.264144897460938 -15.919435501098633 2.276791334152222 0.000000000000000
14.267230987548828 -22.141801834106445 -1.371218800544739 1.000000000000000
14.272562980651855 -5.471865177154541 1.291621804237366 0.000000000000000
14.274271011352539 -5.986870288848877 2.294012069702148 0.000000000000000
14.277983665466309 -7.400372028350830 1.048423290252686 0.000000000000000
14.290961265563965 -12.641797065734863 1.612253904342651 0.000000000000000
14.295284271240234 -8.338099479675293 1.442054629325867 0.000000000000000
14.299534797668457 -5.822144031524658 2.288148164749146 0.000000000000000
14.304156303405762 -10.149662017822266 1.992140889167786 0.000000000000000
14.315271377563477 -15.200562477111816 1.683651447296143 0.000000000000000
14.316555976867676 -7.031588554382324 1.039836049079895 0.000000000000000
14.321356773376465 -18.826036453247070 2.519553184509277 1.000000000000000
14.328242301940918 -20.328144073486328 3.044877290725708 1.000000000000000
14.331632614135742 -6.140177249908447 1.908881425857544 0.000000000000000
14.334567070007324 -13.880492210388184 1.300835847854614 0.000000000000000
14.349132537841797 -5.033993244171143 3.162963867187500 0.000000000000000
14.351596832275391 -8.376990318298340 1.243645071983337 0.000000000000000
14.359241485595703 -8.562883377075195 1.057702660560608 0.000000000000000
14.359518051147461 -18.757032394409180 2.058391571044922 0.000000000000000
14.361107826232910 -9.303421974182129 1.181531071662903 0.000000000000000
14.363130569458008 -18.120460510253906 0.262327849864960 0.000000000000000
14.372920989990234 -15.928607940673828 2.285264730453491 0.000000000000000
14.391697883605957 -4.237344741821289 1.267709136009216 0.000000000000000
14.396035194396973 -17.786508560180664 1.624176979064941 1.000000000000000
14.400366783142090 -17.449174880981445 1.474922537803650 1.000000000000000
14.415781021118164 -12.629841804504395 3.986491203308105 0.000000000000000
14.421298027038574 -11.290679931640625 1.335356473922729 0.000000000000000
14.422282218933105 -16.451831817626953 -1.349639773368835 1.000000000000000
14.423652648925781 -6.877257347106934 1.195881366729736 0.000000000000000
14.428135871887207 -7.613208770751953 1.283904671669006 0.000000000000000
14.429186820983887 -9.536713600158691 -0.036224629729986 0.000000000000000
14.465939521789551 -11.039256095886230 1.467287540435791 0.000000000000000
14.468108177185059 -6.502529144287109 0.972951948642731 0.000000000000000
14.494280815124512 -11.549109458923340 2.104997158050537 0.000000000000000
14.499164581298828 -0.026824388653040 -1.454879403114319 0.000000000000000
14.513584136962891 -8.521538734436035 1.064774274826050 0.000000000000000
14.522516250610352 -8.602624893188477 1.693698525428772 0.000000000000000
14.524568557739258 -11.591075897216797 1.864625811576843 0.000000000000000
14.526341438293457 -6.986060142517090 1.404553532600403 0.000000000000000
14.539912223815918 -7.717341899871826 1.073144078254700 0.000000000000000
14.540887832641602 -12.725550651550293 1.938907265663147 0.000000000000000
14.541298866271973 -7.126226425170898 1.468033194541931 0.000000000000000
14.546717643737793 -9.397015571594238 1.646176099777222 0.000000000000000
14.557709693908691 -9.848159790039062 1.593348741531372 0.000000000000000
14.562675476074219 -18.983934402465820 2.717581748962402 1.000000000000000
14.567905426025391 -19.027172088623047 2.404564619064331 1.000000000000000
14.569816589355469 -12.350857734680176 0.950871527194977 0.000000000000000
14.578330993652344 -18.903715133666992 2.395379304885864 0.000000000000000
14.582968711853027 -7.957166671752930 1.307442545890808 0.000000000000000
14.583340644836426 -8.570028305053711 1.697292685508728 0.000000000000000
14.592705726623535 -11.310699462890625 1.453062534332275 0.000000000000000
14.598472595214844 -8.558366775512695 1.299121856689453 0.000000000000000
14.601009368896484 -8.776294708251953 1.814569592475891 0.000000000000000
14.603982925415039 -4.264693737030029 1.620529890060425 0.000000000000000
14.613789558410645 -8.375832557678223 1.325644969940186 0.000000000000000
14.619128227233887 -19.195907592773438 2.740604400634766 0.000000000000000
14.635256767272949 -9.025514602661133 1.634442210197449 0.000000000000000
14.641716003417969 -17.627265930175781 1.229002594947815 1.000000000000000
14.670839309692383 -16.959793090820312 0.383594900369644 1.000000000000000
14.671319007873535 -9.359625816345215 2.315819025039673 0.000000000000000
14.678989410400391 -16.395082473754883 -1.357520699501038 1.000000000000000
14.682374000549316 -12.896963119506836 1.651322484016418 0.000000000000000
14.685268402099609 -12.072061538696289 1.807046532630920 0.000000000000000
14.686168670654297 -4.142481327056885 1.450482249259949 0.000000000000000
14.691739082336426 -7.783471584320068 1.180112600326538 0.000000000000000
14.699927330017090 -4.128918170928955 1.201679587364197 0.000000000000000
14.724006652832031 -4.171470642089844 0.997680485248566 0.000000000000000
14.725214004516602 -4.057659149169922 0.819192171096802 0.000000000000000
14.771898269653320 -18.318784713745117 -1.361006498336792 1.000000000000000
14.773657798767090 -8.451025962829590 1.043970227241516 0.000000000000000
14.776692390441895 -4.141855716705322 1.237421154975891 0.000000000000000
14.780939102172852 -8.903770446777344 2.557307481765747 0.000000000000000
14.784676551818848 -6.532844543457031 1.022597432136536 0.000000000000000
14.786409378051758 -13.187177658081055 2.250356197357178 0.000000000000000
14.788647651672363 -18.657291412353516 -0.461284667253494 0.000000000000000
14.791182518005371 1.787837028503418 -1.437219619750977 0.000000000000000
14.822567939758301 -3.197170972824097 3.154003620147705 0.000000000000000
14.837730407714844 -7.335841655731201 1.500535845756531 0.000000000000000
14.844609260559082 -17.571197509765625 3.931868314743042 0.000000000000000
14.851394653320312 -10.694622039794922 0.911094486713409 0.000000000000000
14.866256713867188 -22.210304260253906 1.073445200920105 1.000000000000000
14.869379997253418 -23.567453384399414 -1.289764285087585 1.000000000000000
14.877588272094727 -18.853172302246094 -0.419206798076630 1.000000000000000
14.883122444152832 -5.649406433105469 1.345172762870789 0.000000000000000
14.893979072570801 -18.187816619873047 1.623227596282959 1.000000000000000
14.906068801879883 -15.994873046875000 -0.087767489254475 0.000000000000000
14.912855148315430 -9.125010490417480 1.308424472808838 0.000000000000000
14.931821823120117 -2.273689031600952 0.984669566154480 0.000000000000000
14.940373420715332 -11.112703323364258 1.769951701164246 0.000000000000000
14.953722000122070 -4.899765014648438 1.177671551704407 0.000000000000000
14.963909149169922 -16.978000640869141 2.051635026931763 0.000000000000000
14.965592384338379 -3.887647867202759 1.469786643981934 0.000000000000000
14.970671653747559 -17.115318298339844 -0.484251797199249 1.000000000000000
14.991779327392578 -8.139194488525391 1.243734359741211 0.000000000000000
15.002776145935059 -12.195033073425293 1.335008978843689 0.000000000000000
15.006943702697754 -3.954359769821167 1.281363844871521 0.000000000000000
15.010402679443359 -18.776981353759766 2.412152528762817 0.000000000000000
15.011680603027344 -23.357980728149414 0.581612884998322 1.000000000000000
15.013435363769531 -7.768268108367920 1.102028369903564 0.000000000000000
15.013683319091797 -18.795200347900391 2.286629199981689 1.000000000000000
15.018884658813477 -18.958629608154297 1.343777418136597 1.000000000000000
15.023056030273438 -23.267494201660156 -0.004833864048123 1.000000000000000
15.030392646789551 -2.200467109680176 0.727000176906586 0.000000000000000
15.039372444152832 -18.679153442382812 -0.372538834810257 1.000000000000000
15.040661811828613 -8.171172142028809 1.214946746826172 0.000000000000000
15.048651695251465 -4.195430755615234 1.139023303985596 0.000000000000000
15.087539672851562 -6.990923881530762 1.668538570404053 0.000000000000000
15.101704597473145 -17.377422332763672 0.261193394660950 1.000000000000000
15.113266944885254 -6.781394958496094 1.399734020233154 0.000000000000000
15.119445800781250 -6.951610088348389 1.581828117370605 0.000000000000000
15.120722770690918 -6.989316463470459 1.343191742897034 0.000000000000000
15.124191284179688 -2.240899324417114 1.386054515838623 0.000000000000000
15.131027221679688 -11.299285888671875 1.449762463569641 0.000000000000000
15.138067245483398 -17.192529678344727 -0.179917171597481 1.000000000000000
15.154694557189941 -5.061573028564453 1.701874017715454 0.000000000000000
15.156514167785645 -18.100008010864258 0.086527653038502 1.000000000000000
15.157569885253906 -16.633441925048828 0.082481287419796 1.000000000000000
15.158466339111328 -18.124179840087891 0.131962969899178 0.000000000000000
15.165589332580566 -10.849089622497559 0.892401337623596 0.000000000000000
15.165974617004395 -9.279891967773438 1.690084338188171 0.000000000000000
15.167300224304199 -15.984116554260254 -0.215373009443283 0.000000000000000
15.173821449279785 -16.947763442993164 -0.003970275167376 1.000000000000000
15.179141044616699 -2.945577621459961 1.469786643981934 0.000000000000000
15.183381080627441 -17.442487716674805 0.706539094448090 1.000000000000000
15.190126419067383 -2.785717248916626 1.275110006332397 0.000000000000000
15.194353103637695 -1.514455318450928 1.024916172027588 0.000000000000000
15.197284698486328 -1.211799860000610 0.964509725570679 0.000000000000000
15.207523345947266 -7.199606895446777 1.194272756576538 0.000000000000000
15.213866233825684 -9.205863952636719 1.433852434158325 0.000000000000000
15.226406097412109 -12.215240478515625 1.574022889137268 0.000000000000000
15.229924201965332 -1.303522706031799 1.025987744331360 0.000000000000000
15.230605125427246 -17.159467697143555 -0.092102877795696 1.000000000000000
15.233198165893555 -16.460725784301758 -0.434551417827606 0.000000000000000
15.233477592468262 -19.163459777832031 1.973958373069763 1.000000000000000
15.239524841308594 -5.255721569061279 1.830981969833374 0.000000000000000
15.244067192077637 -17.488153457641602 -0.761500000953674 1.000000000000000
15.246088981628418 -17.443704605102539 0.173872262239456 1.000000000000000
15.250168800354004 -8.625319480895996 1.446594834327698 0.000000000000000
15.257450103759766 -10.244079589843750 3.141316175460815 0.000000000000000
15.258225440979004 -3.054156541824341 0.984461605548859 0.000000000000000
15.260786056518555 -6.187766551971436 1.264217376708984 0.000000000000000
15.261431694030762 -8.659484863281250 1.076295852661133 0.000000000000000
15.267491340637207 -18.464408874511719 0.225814342498779 1.000000000000000
15.273445129394531 -2.798241615295410 3.229758501052856 0.000000000000000
15.277122497558594 -7.349754810333252 3.526260614395142 0.000000000000000
15.287152290344238 -1.504844903945923 1.149610400199890 0.000000000000000
15.292547225952148 -18.230115890502930 1.001463651657104 1.000000000000000
15.296529769897461 -1.097005486488342 1.266223073005676 0.000000000000000
15.300681114196777 -10.259938240051270 1.605253696441650 0.000000000000000
15.303667068481445 -0.878651976585388 2.039862155914307 0.000000000000000
15.308044433593750 -17.542995452880859 -0.227570563554764 1.000000000000000
15.309151649475098 -6.607104301452637 1.183511018753052 0.000000000000000
15.323081970214844 -16.490751266479492 -0.220025286078453 1.000000000000000
15.323810577392578 -8.017565727233887 1.361108541488647 0.000000000000000
15.324014663696289 -17.386575698852539 -0.093034185469151 1.000000000000000
15.324996948242188 -17.624420166015625 -0.766617774963379 0.000000000000000
15.326932907104492 -10.604166984558105 3.185797452926636 0.000000000000000
15.331290245056152 -5.356628417968750 1.729836106300354 0.000000000000000
15.333518028259277 -23.388391494750977 -0.864229857921600 1.000000000000000
15.333678245544434 -16.234197616577148 -0.475564867258072 1.000000000000000
15.337216377258301 -7.312848567962646 1.615137696266174 0.000000000000000
15.342569351196289 -17.245557785034180 0.660881340503693 0.000000000000000
15.354787826538086 -6.974613666534424 1.796352028846741 0.000000000000000
15.356428146362305 -17.274484634399414 0.928328692913055 1.000000000000000
15.356670379638672 -16.235816955566406 3.312009334564209 0.000000000000000
15.360716819763184 -5.586593627929688 1.128626704216003 0.000000000000000
15.363235473632812 -16.790721893310547 0.651608645915985 1.000000000000000
15.381305694580078 -18.938846588134766 -1.035378456115723 1.000000000000000
15.386477470397949 -6.157578945159912 1.016542553901672 0.000000000000000
15.403036117553711 -3.951388835906982 1.159383893013000 0.000000000000000
15.404791831970215 -7.120622634887695 1.927587032318115 0.000000000000000
15.410628318786621 -17.691698074340820 0.671756803989410 1.000000000000000
15.419769287109375 -16.531047821044922 -1.438113331794739 0.000000000000000
15.426032066345215 -16.592256546020508 0.170029774308205 1.000000000000000
15.426145553588867 -18.475004196166992 0.411712884902954 1.000000000000000
15.426980018615723 -17.658132553100586 0.085941225290298 1.000000000000000
15.430606842041016 -5.634282588958740 1.749748468399048 0.000000000000000
15.432024002075195 -17.224657058715820 0.662140607833862 1.000000000000000
15.438886642456055 -17.775438308715820 -1.225654125213623 1.000000000000000
15.441479682922363 -1.801389813423157 2.303981065750122 0.000000000000000
15.441547393798828 -16.980751037597656 0.436690658330917 1.000000000000000
15.441705703735352 -16.427074432373047 0.342363893985748 0.000000000000000
15.443271636962891 -17.307586669921875 0.085017591714859 1.000000000000000
15.450461387634277 -16.579029083251953 -0.787425696849823 1.000000000000000
15.450999259948730 -17.598651885986328 -0.993827641010284 1.000000000000000
15.451945304870605 -17.876636505126953 -0.367071300745010 1.000000000000000
15.452408790588379 -9.231234550476074 1.568447113037109 0.000000000000000
15.455555915832520 -1.213121652603149 1.010691523551941 0.000000000000000
15.460053443908691 -5.006575584411621 2.408360958099365 0.000000000000000
15.466925621032715 -11.596861839294434 2.366779804229736 0.000000000000000
15.472301483154297 -4.459707736968994 1.267271399497986 0.000000000000000
15.474618911743164 -10.548947334289551 2.292893648147583 0.000000000000000
15.476660728454590 -18.120201110839844 -0.690607011318207 1.000000000000000
15.480839729309082 -7.941731452941895 1.134295582771301 0.000000000000000
15.481326103210449 -5.322790622711182 1.161987423896790 0.000000000000000
15.482998847961426 -18.069429397583008 -0.461052238941193 1.000000000000000
15.503589630126953 -17.783372879028320 -1.364470958709717 1.000000000000000
15.510255813598633 -18.239961624145508 0.225663527846336 1.000000000000000
15.518761634826660 -11.698897361755371 1.950089573860168 0.000000000000000
15.520792961120605 -5.231769084930420 1.320687413215637 0.000000000000000
15.523803710937500 -6.064341545104980 2.848818540573120 0.000000000000000
15.529426574707031 -8.317036628723145 1.182430744171143 0.000000000000000
15.530046463012695 -4.112495422363281 1.326456785202026 0.000000000000000
15.547416687011719 -15.971576690673828 -0.346257328987122 1.000000000000000
15.547965049743652 -18.087665557861328 0.453811317682266 1.000000000000000
15.555607795715332 -1.730821967124939 1.231807947158813 0.000000000000000
15.567914962768555 -10.236325263977051 2.479387760162354 1.000000000000000
15.568993568420410 -10.710677146911621 2.514739751815796 0.000000000000000
15.570476531982422 -16.928022384643555 -0.048171050846577 1.000000000000000
15.572286605834961 -5.540754318237305 1.141301751136780 0.000000000000000
15.572740554809570 -10.190129280090332 1.464674592018127 0.000000000000000
15.575404167175293 -11.926397323608398 1.468134045600891 0.000000000000000
15.581863403320312 -19.461872100830078 2.010286808013916 0.000000000000000
15.583895683288574 -11.564760208129883 2.067075729370117 0.000000000000000
15.587252616882324 -1.494292497634888 1.081233263015747 0.000000000000000
15.589368820190430 -7.102512836456299 1.492750525474548 0.000000000000000
15.601549148559570 -10.945438385009766 1.811588764190674 0.000000000000000
15.601770401000977 -4.459593772888184 1.214389920234680 0.000000000000000
15.603159904479980 -16.836904525756836 -1.150809049606323 1.000000000000000
15.605391502380371 -8.707982063293457 2.187897920608521 0.000000000000000
15.633094787597656 -1.283076524734497 0.569684445858002 0.000000000000000
15.634858131408691 -17.301010131835938 0.891748070716858 1.000000000000000
15.653311729431152 -17.687871932983398 0.131918281316757 0.000000000000000
15.658860206604004 -6.195355415344238 1.162794232368469 0.000000000000000
15.662703514099121 -16.878099441528320 -0.313483595848083 1.000000000000000
15.665769577026367 -5.373368263244629 1.239465832710266 0.000000000000000
15.670653343200684 -16.026948928833008 0.211262688040733 1.000000000000000
15.674461364746094 -5.762731075286865 1.153150200843811 0.000000000000000
15.674986839294434 -3.685771942138672 0.832623481750488 0.000000000000000
15.686450004577637 -16.540473937988281 0.433723092079163 1.000000000000000
15.695894241333008 -16.783561706542969 -0.975172221660614 1.000000000000000
15.698918342590332 -16.201158523559570 2.761971950531006 0.000000000000000
15.702084541320801 -6.698154449462891 1.622708082199097 0.000000000000000
15.704501152038574 -16.942108154296875 0.705806195735931 1.000000000000000
15.706698417663574 -16.913072586059570 -1.334908843040466 1.000000000000000
15.710896492004395 -7.120828628540039 1.424212932586670 0.000000000000000
15.713491439819336 -16.484075546264648 2.285155057907104 0.000000000000000
15.716695785522461 -18.168825149536133 0.780146658420563 1.000000000000000
15.718574523925781 -17.930543899536133 0.728526830673218 1.000000000000000
15.722789764404297 -5.400901794433594 0.955654740333557 0.000000000000000
15.726307868957520 -18.166473388671875 -1.389644742012024 1.000000000000000
15.737614631652832 -1.135816931724548 1.792159438133240 0.000000000000000
15.739350318908691 -14.285592079162598 3.633305311203003 0.000000000000000
15.751569747924805 -17.456478118896484 0.402203381061554 1.000000000000000
15.758619308471680 -5.232421398162842 0.954506874084473 0.000000000000000
15.763755798339844 -16.881505966186523 -0.358807802200317 0.000000000000000
15.765184402465820 -12.099676132202148 1.679276704788208 0.000000000000000
15.768420219421387 -3.730111837387085 1.025123000144958 0.000000000000000
15.769239425659180 -1.082781195640564 1.795319437980652 0.000000000000000
15.778226852416992 -18.145654678344727 0.688470542430878 1.000000000000000
15.784384727478027 -16.196903228759766 2.408975839614868 0.000000000000000
15.786547660827637 -12.719040870666504 1.837840437889099 0.000000000000000
15.787865638732910 -17.044567108154297 -1.477983355522156 1.000000000000000
15.795540809631348 -5.787224769592285 0.999431133270264 0.000000000000000
15.797165870666504 -16.260475158691406 0.257200181484222 1.000000000000000
15.798773765563965 -15.910567283630371 0.297434508800507 1.000000000000000
15.802708625793457 -18.493442535400391 3.237081050872803 0.000000000000000
15.803974151611328 -16.793655395507812 0.394472658634186 1.000000000000000
15.818073272705078 -16.285404205322266 0.213976979255676 0.000000000000000
15.819955825805664 -4.594325542449951 1.435457229614258 0.000000000000000
15.822688102722168 -21.590482711791992 3.967022657394409 0.000000000000000
15.822690963745117 -3.004317760467529 -0.993512213230133 0.000000000000000
15.831612586975098 -17.668800354003906 0.041406169533730 1.000000000000000
15.832915306091309 -17.437406539916992 0.719609558582306 1.000000000000000
15.834036827087402 -10.082731246948242 3.208711862564087 0.000000000000000
15.837252616882324 -15.373648643493652 1.396379709243774 0.000000000000000
15.840292930603027 -16.176702499389648 1.694414138793945 0.000000000000000
15.844707489013672 -8.535776138305664 2.203452825546265 0.000000000000000
15.861120223999023 -7.225654125213623 1.656774759292603 0.000000000000000
15.863455772399902 -5.998097896575928 1.612109661102295 0.000000000000000
15.865112304687500 -17.127962112426758 1.747252583503723 0.000000000000000
15.870863914489746 -6.927872657775879 1.162339568138123 0.000000000000000
15.877553939819336 -5.591991901397705 0.870423078536987 0.000000000000000
15.882582664489746 -17.116840362548828 0.668551385402679 1.000000000000000
15.890143394470215 -17.243518829345703 0.401108801364899 1.000000000000000
15.891511917114258 -16.566883087158203 2.182158231735229 0.000000000000000
15.894084930419922 -1.231912732124329 1.316253185272217 0.000000000000000
15.894488334655762 -17.628473281860352 -0.004142713733017 0.000000000000000
15.896717071533203 -9.449291229248047 0.920640945434570 0.000000000000000
15.898927688598633 -14.531970024108887 3.681830167770386 0.000000000000000
15.899292945861816 -7.214915752410889 1.983112335205078 0.000000000000000
15.899375915527344 -7.990294456481934 1.331709265708923 0.000000000000000
15.900871276855469 -15.372462272644043 1.826099753379822 0.000000000000000
15.902988433837891 -7.697737216949463 1.881932973861694 0.000000000000000
15.907346725463867 -1.453840494155884 1.318886280059814 0.000000000000000
15.910046577453613 -19.083635330200195 0.711366117000580 1.000000000000000
15.916163444519043 -16.746360778808594 0.173391968011856 1.000000000000000
15.928239822387695 -13.852066040039062 1.579781532287598 0.000000000000000
15.928944587707520 -10.766065597534180 2.849336624145508 0.000000000000000
15.929052352905273 -17.384725570678711 -0.230463594198227 1.000000000000000
15.941119194030762 -7.647627353668213 1.118568658828735 0.000000000000000
15.944008827209473 -17.069162368774414 1.027974605560303 1.000000000000000
15.948437690734863 -2.927661895751953 1.985197663307190 0.000000000000000
15.953027725219727 -3.530275106430054 1.317472457885742 0.000000000000000
15.954775810241699 -17.658739089965820 -0.232613801956177 1.000000000000000
15.956671714782715 -1.646709680557251 1.324481844902039 0.000000000000000
15.956830978393555 -9.763808250427246 1.111401557922363 0.000000000000000
15.957978248596191 -2.984148502349854 1.214986920356750 0.000000000000000
15.958325386047363 -5.566021919250488 1.362802863121033 0.000000000000000
15.960728645324707 -8.131695747375488 2.034574985504150 0.000000000000000
15.967656135559082 -8.294886589050293 1.805520176887512 0.000000000000000
15.973673820495605 -2.188688993453979 3.353572607040405 0.000000000000000
15.974488258361816 -3.504035711288452 1.554574847221375 0.000000000000000
15.977528572082520 -18.239416122436523 -1.168949246406555 1.000000000000000
15.987351417541504 -16.798936843872070 0.263099282979965 1.000000000000000
15.997255325317383 -9.942699432373047 1.409623622894287 0.000000000000000
15.997653007507324 -1.732533693313599 1.614624619483948 0.000000000000000
15.998844146728516 -1.651061773300171 1.079564094543457 0.000000000000000
16.003828048706055 -4.552469730377197 1.052651643753052 0.000000000000000
16.008926391601562 -10.341585159301758 1.426340937614441 0.000000000000000
16.010597229003906 -6.920443534851074 2.321095228195190 0.000000000000000
16.010990142822266 -1.442745923995972 1.017041325569153 0.000000000000000
16.015205383300781 -16.502185821533203 0.084284551441669 1.000000000000000
16.017051696777344 -17.051652908325195 2.223795175552368 0.000000000000000
16.023344039916992 -18.427549362182617 1.827555179595947 0.000000000000000
16.032073974609375 -17.308214187622070 -0.411806970834732 1.000000000000000
16.034164428710938 -17.205369949340820 0.266820222139359 1.000000000000000
16.035512924194336 -17.414682388305664 0.723274230957031 1.000000000000000
16.037347793579102 -17.662553787231445 -0.370612740516663 1.000000000000000
16.041887283325195 -4.977454662322998 1.095002532005310 0.000000000000000
16.042032241821289 -7.490409374237061 1.120083928108215 0.000000000000000
16.047569274902344 -16.637493133544922 -0.137172296643257 0.000000000000000
16.050058364868164 -7.222949504852295 1.874730587005615 0.000000000000000
16.056043624877930 -14.476217269897461 3.695309400558472 0.000000000000000
16.058837890625000 -1.487471580505371 1.974503755569458 0.000000000000000
16.080764770507812 -16.422283172607422 2.184807777404785 0.000000000000000
16.082101821899414 -14.304481506347656 2.635102272033691 0.000000000000000
16.093683242797852 -18.926069259643555 -0.147426396608353 1.000000000000000
16.101488113403320 -16.809259414672852 1.921881079673767 0.000000000000000
16.113210678100586 -16.977407455444336 -0.903281331062317 1.000000000000000
16.118309020996094 -18.689062118530273 -0.146453201770782 0.000000000000000
16.121006011962891 -6.227690696716309 1.642769575119019 0.000000000000000
16.121217727661133 -16.349039077758789 2.182536602020264 0.000000000000000
16.121809005737305 -7.687636375427246 2.647027492523193 0.000000000000000
16.137947082519531 -5.426629543304443 2.265692710876465 0.000000000000000
16.138525009155273 -12.585225105285645 1.650216341018677 0.000000000000000
16.139789581298828 -4.664919853210449 1.030501365661621 0.000000000000000
16.146160125732422 -17.056783676147461 -1.087071180343628 1.000000000000000
16.146211624145508 -18.160999298095703 0.742452383041382 1.000000000000000
16.147520065307617 -16.327762603759766 0.084167271852493 1.000000000000000
16.147541046142578 -4.654337882995605 1.789997100830078 0.000000000000000
16.155042648315430 -13.490472793579102 1.493902921676636 0.000000000000000
16.161066055297852 -6.787512779235840 1.176537394523621 0.000000000000000
16.161508560180664 -16.519729614257812 0.262191742658615 1.000000000000000
16.162714004516602 -17.056968688964844 0.672787070274353 1.000000000000000
16.162746429443359 -19.131444931030273 -0.870210289955139 1.000000000000000
16.170854568481445 -12.041094779968262 2.468372583389282 0.000000000000000
16.184665679931641 -19.085651397705078 -0.629056632518768 1.000000000000000
16.194019317626953 -7.319366931915283 2.175745725631714 0.000000000000000
16.196708679199219 -16.522796630859375 0.351352691650391 1.000000000000000
16.204359054565430 -1.667697668075562 1.376495003700256 0.000000000000000
16.211988449096680 -4.472223281860352 0.869596838951111 0.000000000000000
16.213418960571289 -19.327878952026367 -0.101271413266659 1.000000000000000
16.214334487915039 -16.458406448364258 0.617098867893219 1.000000000000000
16.215291976928711 -1.995009541511536 2.421261787414551 0.000000000000000
16.219932556152344 -3.557874202728271 1.242749452590942 0.000000000000000
16.220853805541992 -7.000575542449951 2.618293523788452 0.000000000000000
16.223232269287109 -17.637689590454102 -1.155273914337158 1.000000000000000
16.225912094116211 -6.172721385955811 1.971826672554016 0.000000000000000
16.228025436401367 -7.624569892883301 2.385995149612427 0.000000000000000
16.228849411010742 -7.646752357482910 1.134984731674194 0.000000000000000
16.232175827026367 -11.871023178100586 1.582677006721497 0.000000000000000
16.232416152954102 -7.601746559143066 2.656409740447998 0.000000000000000
16.241210937500000 -7.272530078887939 2.178662300109863 0.000000000000000
16.244611740112305 -7.110268115997314 1.121851801872253 0.000000000000000
16.253986358642578 -1.714673042297363 0.719318449497223 0.000000000000000
16.258647918701172 -17.156412124633789 0.404324233531952 1.000000000000000
16.259143829345703 -16.317136764526367 0.482513368129730 1.000000000000000
16.259588241577148 -3.040549516677856 1.572365164756775 0.000000000000000
16.261621475219727 -1.988321661949158 0.752531111240387 0.000000000000000
16.263309478759766 -17.786264419555664 0.736344695091248 1.000000000000000
16.266077041625977 -10.246863365173340 1.513005256652832 0.000000000000000
16.267347335815430 -17.639871597290039 0.456550627946854 1.000000000000000
16.267889022827148 -19.102540969848633 -1.209589838981628 1.000000000000000
16.269716262817383 -18.853969573974609 -0.482516348361969 1.000000000000000
16.275981903076172 -8.008069992065430 2.060306072235107 0.000000000000000
16.277883529663086 -13.476765632629395 2.008796691894531 0.000000000000000
16.279298782348633 -5.531781673431396 1.558679223060608 0.000000000000000
16.284938812255859 -18.945022583007812 -1.444842576980591 1.000000000000000
16.286911010742188 -16.288047790527344 0.305552124977112 1.000000000000000
16.288578033447266 -7.589259147644043 2.200050115585327 0.000000000000000
16.289581298828125 -16.810718536376953 1.932742953300476 0.000000000000000
16.294507980346680 -19.119596481323242 -1.162711262702942 1.000000000000000
16.295021057128906 -10.930820465087891 2.907977104187012 0.000000000000000
16.295921325683594 -18.692214965820312 -0.289997309446335 1.000000000000000
16.299293518066406 -3.222025871276855 0.987095355987549 0.000000000000000
16.302129745483398 -18.891530990600586 -0.867015540599823 1.000000000000000
16.308786392211914 -1.641920924186707 1.036993145942688 0.000000000000000
16.310478210449219 -9.756981849670410 1.722998023033142 0.000000000000000
16.322259902954102 -6.412731170654297 1.867951989173889 0.000000000000000
16.324672698974609 -19.169219970703125 -0.826456427574158 1.000000000000000
16.325799942016602 -15.226185798645020 3.308490991592407 0.000000000000000
16.333681106567383 -18.088262557983398 0.463703244924545 1.000000000000000
16.335548400878906 -15.362648010253906 2.745444774627686 0.000000000000000
16.338733673095703 -8.498883247375488 1.750647187232971 0.000000000000000
16.338821411132812 -12.209219932556152 2.172569036483765 0.000000000000000
16.340835571289062 -6.354275703430176 1.867528080940247 0.000000000000000
16.342105865478516 -3.923090934753418 1.063258886337280 0.000000000000000
16.349626541137695 -13.400131225585938 1.704548358917236 0.000000000000000
16.362977981567383 -18.577144622802734 -1.336401343345642 1.000000000000000
16.364686965942383 -5.252866268157959 1.186766505241394 0.000000000000000
16.376735687255859 -16.395038604736328 1.913323283195496 0.000000000000000
16.377719879150391 -18.845724105834961 -0.100227713584900 1.000000000000000
16.379096984863281 -4.721080780029297 1.078412175178528 0.000000000000000
16.383445739746094 -7.219812870025635 1.201718211174011 0.000000000000000
16.389600753784180 -6.340000629425049 3.003828763961792 0.000000000000000
16.394338607788086 -18.611436843872070 -1.291158199310303 1.000000000000000
16.398307800292969 -18.736915588378906 -0.482438862323761 1.000000000000000
16.399641036987305 -2.217609882354736 1.015073180198669 0.000000000000000
16.403615951538086 -5.333656311035156 0.891904830932617 0.000000000000000
16.404563903808594 -17.419059753417969 0.455257058143616 1.000000000000000
16.405803680419922 -5.257222175598145 0.990318179130554 0.000000000000000
16.408788681030273 -9.557427406311035 1.494488954544067 0.000000000000000
16.409397125244141 -12.483420372009277 2.524273395538330 0.000000000000000
16.412252426147461 -13.818441390991211 2.855068445205688 0.000000000000000
16.421096801757812 -5.158023357391357 1.387879252433777 0.000000000000000
16.428634643554688 -6.223596096038818 1.592626571655273 0.000000000000000
16.430892944335938 -19.452974319458008 -0.151105523109436 0.000000000000000
16.431415557861328 -1.978527188301086 2.202375888824463 0.000000000000000
16.432876586914062 -7.802201271057129 2.066174745559692 0.000000000000000
16.434564590454102 -5.573025226593018 1.649582862854004 0.000000000000000
16.439952850341797 -0.865607500076294 0.661211431026459 0.000000000000000
16.442174911499023 -9.597255706787109 1.809696078300476 0.000000000000000
16.442501068115234 -12.638673782348633 2.355538606643677 0.000000000000000
16.445247650146484 -5.125587940216064 1.728443026542664 0.000000000000000
16.447412490844727 -17.960523605346680 0.837679684162140 1.000000000000000
16.447624206542969 -19.229131698608398 0.092743799090385 1.000000000000000
16.447792053222656 -9.907070159912109 3.993822336196899 0.000000000000000
16.458498001098633 -4.091972351074219 1.612109661102295 0.000000000000000
16.460018157958984 -6.836143970489502 1.265073776245117 0.000000000000000
16.464176177978516 -10.452110290527344 2.077243804931641 0.000000000000000
16.475288391113281 -9.383624076843262 1.652130007743835 0.000000000000000
16.477104187011719 -15.388822555541992 3.341329813003540 0.000000000000000
16.479467391967773 -6.704352855682373 1.612850308418274 0.000000000000000
16.480607986450195 -2.105952501296997 1.115192413330078 0.000000000000000
16.487342834472656 -7.690976619720459 1.466966152191162 0.000000000000000
16.489103317260742 -11.219028472900391 2.001208066940308 0.000000000000000
16.490169525146484 -5.956015110015869 1.867528080940247 0.000000000000000
16.490446090698242 -5.443797588348389 1.849734187126160 0.000000000000000
16.506935119628906 -9.460882186889648 1.203679800033569 0.000000000000000
16.510978698730469 -2.046601772308350 2.213984012603760 0.000000000000000
16.511949539184570 -18.105724334716797 -1.322817325592041 1.000000000000000
16.530075073242188 -3.416595220565796 1.917204260826111 0.000000000000000
16.530817031860352 -17.846656799316406 2.312368392944336 0.000000000000000
16.532548904418945 -4.743130207061768 1.121284604072571 0.000000000000000
16.537342071533203 -10.388339042663574 1.348510503768921 0.000000000000000
16.538587570190430 -5.058247089385986 1.194206118583679 0.000000000000000
16.544729232788086 -3.888452768325806 1.173540353775024 0.000000000000000
16.544778823852539 -6.117144584655762 1.769976854324341 0.000000000000000
16.546543121337891 -0.941892504692078 0.697526037693024 0.000000000000000
16.548364639282227 -2.072647809982300 1.776439666748047 0.000000000000000
16.552347183227539 -6.971227645874023 1.413519144058228 0.000000000000000
16.553482055664062 -17.690675735473633 0.135313972830772 1.000000000000000
16.558135986328125 -11.623441696166992 3.458076000213623 0.000000000000000
16.559450149536133 -18.646112442016602 0.713999152183533 1.000000000000000
16.559804916381836 -10.466244697570801 2.903285980224609 0.000000000000000
16.564010620117188 -6.802853584289551 1.623323440551758 0.000000000000000
16.564926147460938 -17.712816238403320 0.461420476436615 1.000000000000000
16.566591262817383 -16.698966979980469 0.266865611076355 1.000000000000000
16.579326629638672 -17.069147109985352 -0.141207471489906 1.000000000000000
16.580585479736328 -5.144601345062256 1.971826672554016 0.000000000000000
16.581493377685547 -17.966674804687500 2.065921306610107 0.000000000000000
16.582202911376953 -3.955331802368164 1.177122473716736 0.000000000000000
16.582759857177734 -2.076955795288086 1.315288305282593 0.000000000000000
16.582782745361328 -18.440332412719727 -1.338773012161255 1.000000000000000
16.583324432373047 -10.182988166809082 1.306192278862000 0.000000000000000
16.583911895751953 -7.099651336669922 1.524349451065063 0.000000000000000
16.591062545776367 -10.978884696960449 2.948439121246338 0.000000000000000
16.591199874877930 -18.363132476806641 -0.622120678424835 1.000000000000000
16.592826843261719 -6.352117061614990 1.610683441162109 0.000000000000000
16.599416732788086 -6.842125415802002 1.101274847984314 0.000000000000000
16.599626541137695 -5.544171810150146 1.107203602790833 0.000000000000000
16.603368759155273 -19.376956939697266 1.073957920074463 1.000000000000000
16.605043411254883 -10.443805694580078 1.581738591194153 0.000000000000000
16.607675552368164 -13.806573867797852 2.453046560287476 0.000000000000000
16.608554840087891 -5.826648712158203 1.045690059661865 0.000000000000000
16.619235992431641 -16.953832626342773 0.725350797176361 1.000000000000000
16.619365692138672 -9.420405387878418 2.542177200317383 0.000000000000000
16.623847961425781 -15.600462913513184 2.287551164627075 0.000000000000000
16.625356674194336 -17.157236099243164 -0.233512967824936 1.000000000000000
16.632637023925781 -4.271772384643555 2.544993162155151 0.000000000000000
16.634078979492188 -8.395919799804688 2.281227588653564 0.000000000000000
16.636430740356445 -17.655385971069336 0.508146941661835 1.000000000000000
16.638435363769531 -17.700170516967773 0.742208063602448 1.000000000000000
