# This PCD file was generated using the MATLAB® pcwrite function
# from Computer Vision Toolbox®.
# .PCD v.7 - Point Cloud Data file format
VERSION .7
FIELDS x y z intensity
SIZE 8 8 8 8
TYPE F F F F
COUNT 1 1 1 1
WIDTH 628
HEIGHT 1
VIEWPOINT 0 0 0 1 0 0 0
POINTS 628
DATA ascii
-15.510936737060547 -25.373140335083008 0.565818428993225 0.000000000000000
-15.502139091491699 -14.281938552856445 2.804942607879639 0.000000000000000
-15.501545906066895 -13.308978080749512 -0.199696019291878 0.000000000000000
-15.494479179382324 -15.544313430786133 1.261657118797302 0.000000000000000
-15.483793258666992 -15.568339347839355 0.544292926788330 0.000000000000000
-15.476425170898438 -15.447280883789062 0.878244161605835 0.000000000000000
-15.475648880004883 -16.649114608764648 2.060663700103760 0.000000000000000
-15.472418785095215 -13.429121017456055 0.822862327098846 0.000000000000000
-15.463324546813965 -20.895963668823242 1.945471644401550 0.000000000000000
-15.448859214782715 -26.605718612670898 1.827822566032410 0.000000000000000
-15.447212219238281 -14.478526115417480 1.844843745231628 0.000000000000000
-15.439196586608887 -10.815059661865234 1.192567348480225 0.000000000000000
-15.433598518371582 -21.143041610717773 1.504760265350342 0.000000000000000
-15.433076858520508 -13.624285697937012 0.747674465179443 0.000000000000000
-15.431519508361816 -16.845275878906250 2.171559810638428 0.000000000000000
-15.429488182067871 -22.671453475952148 0.943283379077911 0.000000000000000
-15.429486274719238 -14.754010200500488 1.597692847251892 0.000000000000000
-15.425687789916992 -10.913105964660645 0.105534635484219 0.000000000000000
-15.414834022521973 -10.950300216674805 1.451599597930908 0.000000000000000
-15.409697532653809 -15.152585029602051 1.617395281791687 0.000000000000000
-15.407142639160156 -13.438613891601562 1.135864734649658 0.000000000000000
-15.405303955078125 -15.108128547668457 1.074180483818054 0.000000000000000
-15.405279159545898 -20.817525863647461 0.343540549278259 0.000000000000000
-15.387713432312012 -21.550495147705078 1.522206783294678 0.000000000000000
-15.381969451904297 -12.656491279602051 0.417256802320480 0.000000000000000
-15.373722076416016 -13.792111396789551 0.511978328227997 0.000000000000000
-15.365544319152832 -14.080912590026855 1.198069214820862 0.000000000000000
-15.364984512329102 -1.680572628974915 1.755593895912170 0.000000000000000
-15.360887527465820 -11.636741638183594 1.679214119911194 0.000000000000000
-15.360425949096680 -5.407456398010254 2.167023897171021 0.000000000000000
-15.360160827636719 -13.472400665283203 1.410783529281616 0.000000000000000
-15.358534812927246 -13.654172897338867 0.746367871761322 0.000000000000000
-15.354984283447266 -33.457942962646484 2.470942735671997 0.000000000000000
-15.353642463684082 -13.507033348083496 2.051927089691162 0.000000000000000
-15.351221084594727 -23.151004791259766 0.315147370100021 0.000000000000000
-15.337621688842773 -21.158535003662109 1.502235054969788 0.000000000000000
-15.335229873657227 -21.356168746948242 0.803285121917725 0.000000000000000
-15.330800056457520 -14.643269538879395 3.141952276229858 0.000000000000000
-15.324211120605469 -13.913679122924805 0.751739561557770 0.000000000000000
-15.314677238464355 -8.657216072082520 1.350560188293457 0.000000000000000
-15.305562019348145 -14.099839210510254 1.035994529724121 0.000000000000000
-15.298051834106445 -27.662143707275391 1.269609451293945 0.000000000000000
-15.290367126464844 -14.280471801757812 1.122104883193970 0.000000000000000
-15.289656639099121 -31.254251480102539 0.661998450756073 0.000000000000000
-15.288125991821289 -13.783862113952637 1.064378380775452 0.000000000000000
-15.286049842834473 -20.780530929565430 1.085731983184814 0.000000000000000
-15.279948234558105 -16.544809341430664 1.251248598098755 0.000000000000000
-15.274240493774414 -32.743778228759766 0.965057969093323 0.000000000000000
-15.269486427307129 -20.971204757690430 2.763162136077881 0.000000000000000
-15.262537956237793 -16.596725463867188 2.760513782501221 0.000000000000000
-15.260672569274902 -16.398324966430664 2.742528200149536 0.000000000000000
-15.255809783935547 -13.956859588623047 0.790711820125580 0.000000000000000
-15.240735054016113 -9.996826171875000 2.070237636566162 0.000000000000000
-15.237136840820312 -0.829480767250061 0.612892746925354 0.000000000000000
-15.232991218566895 -8.775642395019531 2.605392694473267 0.000000000000000
-15.232730865478516 -4.265095710754395 2.703917741775513 0.000000000000000
-15.228246688842773 -20.261495590209961 1.457011938095093 0.000000000000000
-15.223099708557129 -11.094367027282715 1.591709256172180 0.000000000000000
-15.203693389892578 -21.305353164672852 1.555013298988342 0.000000000000000
-15.202223777770996 4.382720947265625 3.290850877761841 0.000000000000000
-15.198884963989258 -16.568086624145508 1.856381177902222 0.000000000000000
-15.195077896118164 -26.369649887084961 1.808132886886597 0.000000000000000
-15.189906120300293 -12.587635993957520 0.110181368887424 0.000000000000000
-15.183553695678711 -10.504971504211426 0.954697549343109 0.000000000000000
-15.175166130065918 -23.213064193725586 1.540817499160767 0.000000000000000
-15.170273780822754 -21.455904006958008 0.752349257469177 0.000000000000000
-15.166994094848633 -8.218224525451660 1.837447881698608 0.000000000000000
-15.159130096435547 -31.904930114746094 2.507208347320557 0.000000000000000
-15.151970863342285 -7.384217262268066 2.881168603897095 0.000000000000000
-15.133823394775391 -20.633136749267578 0.437710046768188 0.000000000000000
-15.132660865783691 -21.091154098510742 0.842984259128571 0.000000000000000
-15.130214691162109 -27.783081054687500 3.873177289962769 0.000000000000000
-15.125600814819336 -17.950780868530273 1.711443662643433 0.000000000000000
-15.122529029846191 -16.034181594848633 1.564420819282532 0.000000000000000
-15.121234893798828 -25.601234436035156 0.794175684452057 0.000000000000000
-15.106058120727539 -16.582727432250977 1.852102279663086 0.000000000000000
-15.105176925659180 -11.588933944702148 1.057758808135986 0.000000000000000
-15.100423812866211 -9.668637275695801 1.909895062446594 0.000000000000000
-15.094477653503418 -14.722887039184570 3.124946594238281 0.000000000000000
-15.089192390441895 -10.541248321533203 2.253520250320435 0.000000000000000
-15.087594985961914 -10.597451210021973 0.988857507705688 0.000000000000000
-15.085324287414551 -11.220517158508301 0.935955166816711 0.000000000000000
-15.082695960998535 -20.504081726074219 1.463209986686707 0.000000000000000
-15.075031280517578 -10.609851837158203 2.256922960281372 0.000000000000000
-15.064891815185547 -14.761911392211914 1.090610861778259 0.000000000000000
-15.064833641052246 -20.326297760009766 1.795798778533936 0.000000000000000
-15.056099891662598 -9.816443443298340 2.391798973083496 0.000000000000000
-15.054843902587891 -15.315647125244141 -0.416109323501587 0.000000000000000
-15.054008483886719 -14.867055892944336 1.053297638893127 0.000000000000000
-15.046984672546387 -10.478196144104004 0.067204803228378 0.000000000000000
-15.037711143493652 -0.352281004190445 2.571148157119751 0.000000000000000
-15.030918121337891 -14.987957954406738 1.261090874671936 0.000000000000000
-15.027722358703613 5.008086681365967 -1.466666817665100 1.000000000000000
-15.021301269531250 -20.420619964599609 0.287603169679642 0.000000000000000
-15.018548011779785 -14.465802192687988 3.090348958969116 0.000000000000000
-15.009799957275391 -1.070122003555298 0.778092980384827 0.000000000000000
-15.006676673889160 -30.892677307128906 1.643685936927795 0.000000000000000
-15.006422042846680 -23.951063156127930 0.483478724956512 0.000000000000000
-15.000169754028320 -8.905742645263672 0.902025997638702 0.000000000000000
-15.000064849853516 -13.490011215209961 0.500083386898041 0.000000000000000
-14.997547149658203 7.322568893432617 2.473451852798462 0.000000000000000
-14.991440773010254 -21.163774490356445 1.940993785858154 0.000000000000000
-14.983486175537109 -8.449306488037109 1.726046800613403 0.000000000000000
-14.982466697692871 -21.151105880737305 -0.054286681115627 0.000000000000000
-14.979383468627930 -15.467250823974609 1.611424803733826 0.000000000000000
-14.964771270751953 -16.335767745971680 1.657994389533997 0.000000000000000
-14.960983276367188 -8.958930015563965 2.320567607879639 0.000000000000000
-14.959084510803223 -12.662903785705566 -0.191564291715622 0.000000000000000
-14.957961082458496 -1.329174637794495 1.239891409873962 0.000000000000000
-14.957551956176758 7.194082260131836 2.208707571029663 0.000000000000000
-14.953703880310059 -1.216807365417480 0.516055762767792 1.000000000000000
-14.949197769165039 -14.179316520690918 1.462467312812805 0.000000000000000
-14.948669433593750 -21.461130142211914 0.849345862865448 0.000000000000000
-14.947522163391113 -21.925392150878906 0.657790541648865 0.000000000000000
-14.937902450561523 -11.574090003967285 1.896175503730774 0.000000000000000
-14.933234214782715 -14.846951484680176 1.454043865203857 0.000000000000000
-14.932627677917480 -1.966449618339539 2.574517965316772 0.000000000000000
-14.927371025085449 -23.008996963500977 1.946746826171875 0.000000000000000
-14.923180580139160 -22.335807800292969 0.717492222785950 0.000000000000000
-14.916615486145020 -15.926872253417969 -0.800152003765106 0.000000000000000
-14.913966178894043 -5.194763183593750 2.101596355438232 0.000000000000000
-14.910044670104980 -2.016445398330688 2.571822166442871 0.000000000000000
-14.906866073608398 -8.799052238464355 1.262058734893799 0.000000000000000
-14.902511596679688 -27.755832672119141 0.175950616598129 0.000000000000000
-14.902430534362793 -14.963943481445312 1.254685640335083 0.000000000000000
-14.902033805847168 -10.377257347106934 2.062563419342041 0.000000000000000
-14.900410652160645 -13.715078353881836 0.424209654331207 0.000000000000000
-14.900079727172852 -10.449435234069824 2.067077398300171 0.000000000000000
-14.894662857055664 -30.272626876831055 2.459836721420288 0.000000000000000
-14.894276618957520 -11.623713493347168 1.895776152610779 0.000000000000000
-14.892997741699219 -21.318471908569336 2.357520580291748 0.000000000000000
-14.889840126037598 -9.088440895080566 1.750408053398132 0.000000000000000
-14.887631416320801 -9.078892707824707 2.584282159805298 0.000000000000000
-14.879506111145020 -10.735784530639648 1.954380273818970 1.000000000000000
-14.876325607299805 -11.653631210327148 2.514739751815796 0.000000000000000
-14.863585472106934 -10.595049858093262 1.189982533454895 0.000000000000000
-14.847834587097168 -9.671058654785156 2.169426441192627 0.000000000000000
-14.846218109130859 -22.220617294311523 1.536209821701050 0.000000000000000
-14.841474533081055 -15.204382896423340 -0.738255023956299 0.000000000000000
-14.837726593017578 -11.957156181335449 2.535845279693604 0.000000000000000
-14.832785606384277 -14.636313438415527 0.756820857524872 0.000000000000000
-14.828154563903809 7.004803180694580 2.182325363159180 0.000000000000000
-14.825496673583984 -21.221847534179688 -1.297814607620239 0.000000000000000
-14.819612503051758 -26.036426544189453 0.570003449916840 0.000000000000000
-14.817996025085449 -21.198499679565430 0.641137659549713 0.000000000000000
-14.811316490173340 -30.137746810913086 3.192045211791992 0.000000000000000
-14.809258460998535 -12.804677963256836 1.616433978080750 0.000000000000000
-14.808282852172852 -13.007564544677734 0.488584935665131 0.000000000000000
-14.797007560729980 -20.438268661499023 3.739497900009155 0.000000000000000
-14.795889854431152 -21.179466247558594 -0.103712074458599 0.000000000000000
-14.794384002685547 -21.916240692138672 1.621913075447083 0.000000000000000
-14.792936325073242 -14.502506256103516 1.350537776947021 0.000000000000000
-14.787855148315430 -20.856292724609375 0.682888567447662 0.000000000000000
-14.787723541259766 -10.133332252502441 0.582156360149384 0.000000000000000
-14.787055969238281 -15.375688552856445 1.596498727798462 0.000000000000000
-14.780068397521973 -4.082769393920898 2.621021032333374 0.000000000000000
-14.762217521667480 -18.814781188964844 1.006509661674500 0.000000000000000
-14.755454063415527 -8.690933227539062 0.621949076652527 0.000000000000000
-14.748668670654297 -30.361541748046875 1.096152186393738 0.000000000000000
-14.747418403625488 -20.237859725952148 0.380262613296509 0.000000000000000
-14.740042686462402 -25.332031250000000 1.177145719528198 0.000000000000000
-14.737631797790527 -9.752404212951660 2.351698398590088 0.000000000000000
-14.724240303039551 -11.713030815124512 1.705663204193115 0.000000000000000
-14.711639404296875 -10.056687355041504 1.552821636199951 0.000000000000000
-14.701672554016113 -20.888902664184570 -0.102539919316769 0.000000000000000
-14.697525024414062 -24.333635330200195 2.702242374420166 0.000000000000000
-14.687083244323730 -21.085582733154297 2.022361755371094 0.000000000000000
-14.684347152709961 -30.016912460327148 1.149403214454651 0.000000000000000
-14.682315826416016 -22.206130981445312 0.762194395065308 0.000000000000000
-14.681643486022949 -14.845528602600098 1.240452170372009 0.000000000000000
-14.674913406372070 -20.871000289916992 0.338447123765945 0.000000000000000
-14.665633201599121 -14.508801460266113 0.868249118328094 0.000000000000000
-14.662813186645508 -20.227624893188477 0.667295515537262 0.000000000000000
-14.661504745483398 -7.888465881347656 1.891021609306335 0.000000000000000
-14.656241416931152 -18.406951904296875 1.352562546730042 0.000000000000000
-14.649402618408203 -14.197255134582520 -0.395265132188797 0.000000000000000
-14.647685050964355 -24.443504333496094 2.132645368576050 0.000000000000000
-14.641920089721680 -21.962104797363281 2.648575544357300 0.000000000000000
-14.641207695007324 5.412456989288330 2.668197870254517 0.000000000000000
-14.640824317932129 -10.514302253723145 2.398658514022827 0.000000000000000
-14.640316009521484 -27.849065780639648 1.445226788520813 0.000000000000000
-14.639117240905762 -24.731725692749023 0.160513609647751 0.000000000000000
-14.634801864624023 -12.926851272583008 1.649975299835205 0.000000000000000
-14.621605873107910 -9.683705329895020 1.528168082237244 0.000000000000000
-14.620112419128418 -19.582988739013672 1.734626770019531 0.000000000000000
-14.619074821472168 -24.743158340454102 0.215689271688461 1.000000000000000
-14.618041038513184 -9.616144180297852 2.142205238342285 0.000000000000000
-14.612616539001465 -21.551939010620117 0.695491075515747 0.000000000000000
-14.612445831298828 -24.692562103271484 -0.666149854660034 1.000000000000000
-14.611919403076172 -10.339695930480957 1.512561559677124 0.000000000000000
-14.611584663391113 -9.129979133605957 1.728842377662659 0.000000000000000
-14.602291107177734 -30.755130767822266 2.482233047485352 0.000000000000000
-14.597185134887695 -6.052920341491699 1.794867873191833 0.000000000000000
-14.579009056091309 -11.608307838439941 1.771465778350830 0.000000000000000
-14.577637672424316 -7.961528778076172 1.769237279891968 0.000000000000000
-14.577035903930664 -13.142739295959473 -0.191837951540947 0.000000000000000
-14.575621604919434 -21.240211486816406 2.027383327484131 0.000000000000000
-14.575311660766602 -30.720445632934570 3.232167959213257 0.000000000000000
-14.574861526489258 -24.660463333129883 -0.610041379928589 1.000000000000000
-14.558763504028320 -14.509039878845215 1.181540966033936 0.000000000000000
-14.556044578552246 -23.704982757568359 2.296777963638306 0.000000000000000
-14.548741340637207 -10.218963623046875 0.679892957210541 0.000000000000000
-14.548478126525879 -20.671237945556641 1.063865900039673 0.000000000000000
-14.547043800354004 -9.687739372253418 0.601171255111694 0.000000000000000
-14.543650627136230 -14.959746360778809 1.078837156295776 0.000000000000000
-14.538908958435059 -9.864323616027832 1.530946135520935 0.000000000000000
-14.537725448608398 -23.023975372314453 1.722681403160095 0.000000000000000
-14.523811340332031 -10.353615760803223 1.507172822952271 0.000000000000000
-14.514290809631348 -24.421548843383789 1.141027212142944 0.000000000000000
-14.504164695739746 -26.262327194213867 3.010398387908936 0.000000000000000
-14.499790191650391 -2.491261005401611 -0.680945277214050 0.000000000000000
-14.486229896545410 -19.134786605834961 -0.096341930329800 0.000000000000000
-14.485555648803711 -9.778358459472656 1.105688214302063 0.000000000000000
-14.474570274353027 -20.755760192871094 1.552119135856628 0.000000000000000
-14.473499298095703 -21.382091522216797 0.640047252178192 0.000000000000000
-14.472267150878906 -13.874523162841797 -0.542500913143158 0.000000000000000
-14.468257904052734 -14.013863563537598 -0.738590538501740 0.000000000000000
-14.467880249023438 -19.831699371337891 1.080384612083435 0.000000000000000
-14.467052459716797 -20.863506317138672 1.851058363914490 0.000000000000000
-14.462696075439453 -9.073839187622070 2.272024631500244 0.000000000000000
-14.460749626159668 -24.482990264892578 -0.550938010215759 1.000000000000000
-14.460658073425293 -10.718303680419922 1.568447113037109 0.000000000000000
-14.456310272216797 -10.695547103881836 1.276402115821838 0.000000000000000
-14.445005416870117 -14.089403152465820 -0.739909768104553 0.000000000000000
-14.440774917602539 -17.259954452514648 1.640763640403748 0.000000000000000
-14.416992187500000 -24.551576614379883 0.159016832709312 1.000000000000000
-14.416730880737305 -8.938404083251953 1.702085018157959 0.000000000000000
-14.415243148803711 -24.492746353149414 0.049602232873440 1.000000000000000
-14.410965919494629 -19.531566619873047 1.863411784172058 0.000000000000000
-14.405507087707520 -10.559465408325195 2.028706550598145 0.000000000000000
-14.405387878417969 -5.898978233337402 -0.960263729095459 0.000000000000000
-14.404700279235840 1.783475160598755 -0.392755925655365 0.000000000000000
-14.401784896850586 -20.986888885498047 1.610294342041016 0.000000000000000
-14.401669502258301 -33.588665008544922 -1.269826412200928 1.000000000000000
-14.400724411010742 -21.067991256713867 1.024966001510620 0.000000000000000
-14.395771980285645 -21.546426773071289 1.090609669685364 0.000000000000000
-14.392175674438477 -20.814424514770508 0.724531114101410 0.000000000000000
-14.381901741027832 -30.055032730102539 2.493559122085571 0.000000000000000
-14.364995956420898 -20.259906768798828 -0.099697828292847 0.000000000000000
-14.364686012268066 -21.213357925415039 1.028979182243347 0.000000000000000
-14.359060287475586 -21.079618453979492 0.730255007743835 0.000000000000000
-14.358716964721680 -25.927289962768555 1.247372269630432 0.000000000000000
-14.349895477294922 -15.395919799804688 2.800721406936646 0.000000000000000
-14.345121383666992 -14.665132522583008 1.021277070045471 0.000000000000000
-14.340473175048828 -31.105466842651367 3.436917781829834 0.000000000000000
-14.337465286254883 -15.160385131835938 0.757837057113647 0.000000000000000
-14.337312698364258 -9.559628486633301 2.293130159378052 0.000000000000000
-14.330734252929688 -10.361532211303711 1.186984777450562 0.000000000000000
-14.328880310058594 -12.604190826416016 2.828226327896118 0.000000000000000
-14.320209503173828 -22.073120117187500 1.461823940277100 0.000000000000000
-14.307588577270508 -9.396183013916016 2.277828693389893 0.000000000000000
-14.301940917968750 -30.417980194091797 3.195073127746582 0.000000000000000
-14.291444778442383 -8.576306343078613 1.376157760620117 0.000000000000000
-14.278533935546875 -24.343011856079102 -0.601013839244843 1.000000000000000
-14.271182060241699 -22.166624069213867 1.464708566665649 0.000000000000000
-14.254405021667480 -13.857934951782227 0.378252178430557 0.000000000000000
-14.249660491943359 -7.804047107696533 -1.158879280090332 0.000000000000000
-14.243761062622070 -24.100244522094727 0.263852179050446 0.000000000000000
-14.229630470275879 -19.793874740600586 0.323379099369049 0.000000000000000
-14.226819038391113 -11.310848236083984 0.171302229166031 0.000000000000000
-14.221736907958984 -9.164936065673828 1.697692155838013 0.000000000000000
-14.219703674316406 -28.760021209716797 0.548813700675964 0.000000000000000
-14.218505859375000 -10.825325012207031 2.378080606460571 0.000000000000000
-14.216759681701660 -9.557593345642090 0.852820992469788 0.000000000000000
-14.215967178344727 -9.143316268920898 1.395577311515808 0.000000000000000
-14.214234352111816 -19.348924636840820 1.796807289123535 0.000000000000000
-14.197370529174805 -21.446638107299805 0.637569129467010 0.000000000000000
-14.193181991577148 -27.310228347778320 1.887864828109741 1.000000000000000
-14.183148384094238 -8.158306121826172 0.846049606800079 0.000000000000000
-14.182991981506348 -10.876702308654785 1.234159946441650 0.000000000000000
-14.168908119201660 -18.580505371093750 0.265095889568329 0.000000000000000
-14.168093681335449 -21.694070816040039 0.692073523998260 0.000000000000000
-14.165029525756836 -10.402200698852539 0.874897301197052 0.000000000000000
-14.164051055908203 -15.082129478454590 0.751449167728424 0.000000000000000
-14.162509918212891 -7.334249496459961 1.952629685401917 0.000000000000000
-14.159750938415527 -10.552818298339844 1.253462433815002 0.000000000000000
-14.152162551879883 -11.968821525573730 -0.216749608516693 0.000000000000000
-14.150391578674316 -24.214525222778320 -1.298086643218994 1.000000000000000
-14.142915725708008 -25.328599929809570 0.774844586849213 0.000000000000000
-14.140458106994629 -7.564898967742920 2.376694917678833 0.000000000000000
-14.139919281005859 -24.957656860351562 1.152103543281555 0.000000000000000
-14.139210700988770 -9.627771377563477 0.588383316993713 0.000000000000000
-14.137744903564453 -8.297552108764648 -1.011244654655457 0.000000000000000
-14.133328437805176 -9.074831008911133 2.235089540481567 0.000000000000000
-14.132181167602539 -5.793437957763672 -0.442637354135513 0.000000000000000
-14.129302978515625 -20.975969314575195 0.238367959856987 0.000000000000000
-14.127933502197266 -32.325256347656250 2.027925491333008 0.000000000000000
-14.124799728393555 -8.674007415771484 0.124400317668915 0.000000000000000
-14.124325752258301 -8.519667625427246 1.107156038284302 0.000000000000000
-14.119241714477539 -8.999107360839844 0.833529055118561 0.000000000000000
-14.117801666259766 -10.311501502990723 -0.943760633468628 0.000000000000000
-14.109642982482910 -5.795706272125244 -0.442057996988297 0.000000000000000
-14.109611511230469 -8.668077468872070 -0.130060613155365 0.000000000000000
-14.105130195617676 -9.981081008911133 0.660786271095276 0.000000000000000
-14.103862762451172 -24.095306396484375 -1.345957636833191 1.000000000000000
-14.102769851684570 -5.988595008850098 1.875827193260193 0.000000000000000
-14.100893974304199 -18.779264450073242 -0.049184735864401 0.000000000000000
-14.099059104919434 -23.870624542236328 1.166804432868958 0.000000000000000
-14.098384857177734 -9.207463264465332 1.390310883522034 0.000000000000000
-14.097721099853516 -24.145671844482422 0.048799380660057 1.000000000000000
-14.097162246704102 -19.077674865722656 1.043979048728943 0.000000000000000
-14.095894813537598 -28.217714309692383 1.266880512237549 0.000000000000000
-14.091636657714844 -12.733669281005859 1.091783285140991 0.000000000000000
-14.084337234497070 -9.006965637207031 0.253872811794281 0.000000000000000
-14.077219009399414 -10.144971847534180 0.530148625373840 0.000000000000000
-14.067148208618164 -12.425445556640625 1.006638169288635 0.000000000000000
-14.063927650451660 -20.211999893188477 1.890355587005615 0.000000000000000
-14.062813758850098 -8.672494888305664 -0.447070896625519 0.000000000000000
-14.058084487915039 -9.799031257629395 0.358953088521957 0.000000000000000
-14.049223899841309 -10.623802185058594 0.707443237304688 0.000000000000000
-14.047419548034668 -14.483668327331543 1.120997905731201 0.000000000000000
-14.042996406555176 -20.634199142456055 0.474888741970062 0.000000000000000
-14.042130470275879 -2.882947683334351 -0.167637154459953 0.000000000000000
-14.030079841613770 -12.428491592407227 2.777795314788818 0.000000000000000
-14.029281616210938 -12.211816787719727 0.103881455957890 0.000000000000000
-14.014811515808105 -7.892432212829590 2.383731842041016 0.000000000000000
-14.014112472534180 -11.158517837524414 1.340664863586426 0.000000000000000
-14.005780220031738 -19.596290588378906 1.338230133056641 0.000000000000000
-14.005456924438477 -26.022928237915039 0.959701120853424 0.000000000000000
-14.001429557800293 -10.429501533508301 1.138198852539062 0.000000000000000
-13.998367309570312 -9.057338714599609 2.218732833862305 0.000000000000000
-13.997868537902832 -6.180803298950195 -0.826033115386963 0.000000000000000
-13.981580734252930 -11.864800453186035 1.743076801300049 0.000000000000000
-13.978885650634766 -11.851600646972656 -0.214317366480827 0.000000000000000
-13.977116584777832 -11.276499748229980 1.274702906608582 0.000000000000000
-13.967883110046387 -16.070478439331055 2.833435297012329 0.000000000000000
-13.967623710632324 -15.466956138610840 3.088589429855347 0.000000000000000
-13.967513084411621 -8.034270286560059 0.585218608379364 0.000000000000000
-13.963953971862793 -14.877384185791016 2.715243577957153 0.000000000000000
-13.956284523010254 -9.600500106811523 0.127132087945938 0.000000000000000
-13.955986022949219 -10.368786811828613 1.368326783180237 0.000000000000000
-13.951471328735352 -12.609659194946289 3.911550998687744 0.000000000000000
-13.940706253051758 -27.329521179199219 -0.712292909622192 1.000000000000000
-13.939359664916992 -12.450535774230957 0.606953799724579 0.000000000000000
-13.936267852783203 -11.230706214904785 0.959937334060669 0.000000000000000
-13.935953140258789 -11.548504829406738 -0.176903769373894 0.000000000000000
-13.933438301086426 -29.572538375854492 2.131195545196533 0.000000000000000
-13.927451133728027 -9.615444183349609 1.802706956863403 0.000000000000000
-13.923719406127930 -20.910133361816406 1.589332103729248 0.000000000000000
-13.923533439636230 -19.074350357055664 0.630769431591034 0.000000000000000
-13.914217948913574 -19.250730514526367 1.136774301528931 0.000000000000000
-13.907080650329590 -10.387179374694824 0.697169542312622 0.000000000000000
-13.906403541564941 -29.143598556518555 2.042922019958496 0.000000000000000
-13.905104637145996 -5.667212009429932 1.998178601264954 0.000000000000000
-13.905041694641113 -9.234642982482910 1.674928426742554 0.000000000000000
-13.902111053466797 -12.446529388427734 0.104216568171978 0.000000000000000
-13.901336669921875 -10.253069877624512 1.092807888984680 0.000000000000000
-13.897790908813477 -10.131473541259766 0.856202065944672 0.000000000000000
-13.891846656799316 -13.549860954284668 -1.010218501091003 0.000000000000000
-13.884452819824219 -9.443303108215332 -0.744877576828003 0.000000000000000
-13.880392074584961 -12.455035209655762 1.072041153907776 0.000000000000000
-13.876822471618652 -21.337438583374023 0.875493466854095 0.000000000000000
-13.875550270080566 -10.980289459228516 0.438626170158386 0.000000000000000
-13.874043464660645 -12.632375717163086 1.783578395843506 0.000000000000000
-13.868497848510742 -24.334789276123047 0.909586846828461 0.000000000000000
-13.860568046569824 -9.185249328613281 1.507397532463074 0.000000000000000
-13.860536575317383 -12.341477394104004 -0.217030256986618 0.000000000000000
-13.854031562805176 -14.262345314025879 0.989853084087372 0.000000000000000
-13.850597381591797 -10.858690261840820 1.249214410781860 0.000000000000000
-13.849610328674316 -17.890888214111328 1.257017731666565 0.000000000000000
-13.849512100219727 -23.881101608276367 -1.277743339538574 1.000000000000000
-13.849060058593750 -11.976141929626465 1.193625688552856 0.000000000000000
-13.843560218811035 -12.693288803100586 3.906663417816162 0.000000000000000
-13.840210914611816 -22.914241790771484 0.355106860399246 0.000000000000000
-13.835504531860352 -16.763530731201172 -0.128983274102211 0.000000000000000
-13.831778526306152 -20.400293350219727 1.416839122772217 0.000000000000000
-13.824101448059082 -18.382560729980469 1.277875542640686 0.000000000000000
-13.821825981140137 -21.655862808227539 0.686199367046356 0.000000000000000
-13.820031166076660 -27.106971740722656 0.286772906780243 0.000000000000000
-13.814552307128906 -10.220740318298340 -0.630125224590302 0.000000000000000
-13.813751220703125 -18.935058593750000 2.227958917617798 0.000000000000000
-13.810988426208496 -9.272904396057129 -0.162595093250275 0.000000000000000
-13.804847717285156 -10.369498252868652 2.951260089874268 0.000000000000000
-13.798979759216309 -23.764328002929688 -1.324770569801331 1.000000000000000
-13.788241386413574 -23.866540908813477 -0.216484934091568 1.000000000000000
-13.786542892456055 -10.270182609558105 0.657423436641693 0.000000000000000
-13.782887458801270 -9.223006248474121 -0.512484014034271 0.000000000000000
-13.774644851684570 -7.422467708587646 1.915686726570129 0.000000000000000
-13.771564483642578 -13.482351303100586 0.366686254739761 0.000000000000000
-13.763222694396973 -12.005579948425293 2.236021041870117 0.000000000000000
-13.755840301513672 -6.129100322723389 2.231853485107422 0.000000000000000
-13.754031181335449 -19.877429962158203 -0.004218809772283 0.000000000000000
-13.753886222839355 -10.337226867675781 1.420592308044434 0.000000000000000
-13.751529693603516 -27.106920242309570 0.519943177700043 0.000000000000000
-13.742217063903809 -13.500669479370117 -0.373258590698242 0.000000000000000
-13.741918563842773 -11.153425216674805 0.949226140975952 0.000000000000000
-13.738623619079590 -9.507401466369629 -0.387898802757263 0.000000000000000
-13.738032341003418 -9.035191535949707 -0.192286923527718 0.000000000000000
-13.730816841125488 -11.872214317321777 0.101379372179508 0.000000000000000
-13.726906776428223 -19.882692337036133 1.854838609695435 0.000000000000000
-13.725517272949219 -30.656497955322266 2.125002622604370 0.000000000000000
-13.718977928161621 -7.827708721160889 -0.639916896820068 0.000000000000000
-13.716016769409180 -13.719847679138184 -0.785970807075500 0.000000000000000
-13.706047058105469 -9.644925117492676 -0.131631389260292 0.000000000000000
-13.704337120056152 -13.530360221862793 2.562755107879639 0.000000000000000
-13.701992034912109 -6.151597023010254 -1.303474783897400 0.000000000000000
-13.698902130126953 -12.377037048339844 2.260325431823730 0.000000000000000
-13.698479652404785 -12.891650199890137 -0.219976991415024 0.000000000000000
-13.698211669921875 -20.815513610839844 0.282702416181564 0.000000000000000
-13.693476676940918 -21.612470626831055 1.076817393302917 0.000000000000000
-13.691197395324707 -14.824544906616211 2.990660190582275 0.000000000000000
-13.684981346130371 -12.451499938964844 2.265186548233032 0.000000000000000
-13.683666229248047 -7.876088142395020 0.603771865367889 0.000000000000000
-13.666584968566895 1.626736521720886 -0.160948514938354 0.000000000000000
-13.664728164672852 -5.648664474487305 -0.229699149727821 0.000000000000000
-13.660847663879395 -10.356378555297852 0.424946963787079 0.000000000000000
-13.657390594482422 -24.459072113037109 1.610357403755188 0.000000000000000
-13.656843185424805 -31.083147048950195 2.672003030776978 0.000000000000000
-13.655665397644043 -13.183441162109375 -0.513612210750580 0.000000000000000
-13.647702217102051 -23.661407470703125 0.205002367496490 1.000000000000000
-13.642079353332520 -15.085282325744629 1.772272229194641 0.000000000000000
-13.639186859130859 -18.323722839355469 0.654012680053711 0.000000000000000
-13.633672714233398 -17.878622055053711 -0.090256325900555 0.000000000000000
-13.633294105529785 -7.085255622863770 1.209211707115173 0.000000000000000
-13.632320404052734 -10.776975631713867 1.651854038238525 0.000000000000000
-13.615929603576660 -26.839626312255859 1.904016375541687 0.000000000000000
-13.615826606750488 -9.459368705749512 1.272790431976318 0.000000000000000
-13.608864784240723 -12.070203781127930 0.590725123882294 0.000000000000000
-13.606512069702148 -9.817300796508789 1.061491012573242 0.000000000000000
-13.606153488159180 -10.294735908508301 0.455721855163574 0.000000000000000
-13.606076240539551 -22.672985076904297 -0.309221327304840 1.000000000000000
-13.602743148803711 -12.727437019348145 2.760789632797241 0.000000000000000
-13.599865913391113 -19.927698135375977 0.690760135650635 0.000000000000000
-13.597684860229492 -7.570862293243408 -0.152117699384689 0.000000000000000
-13.595435142517090 -10.256806373596191 1.934358477592468 0.000000000000000
-13.590800285339355 -9.481776237487793 0.824977040290833 0.000000000000000
-13.589347839355469 -9.672446250915527 -0.964691042900085 0.000000000000000
-13.584543228149414 -10.046166419982910 0.906167089939117 0.000000000000000
-13.579880714416504 -20.912780761718750 1.625589489936829 0.000000000000000
-13.565995216369629 -26.011247634887695 1.178269505500793 0.000000000000000
-13.564763069152832 -31.554620742797852 2.305391550064087 0.000000000000000
-13.558074951171875 -9.497345924377441 0.283163785934448 0.000000000000000
-13.551563262939453 -13.041869163513184 -0.075499951839447 0.000000000000000
-13.547548294067383 -9.308190345764160 1.071582794189453 0.000000000000000
-13.546505928039551 -9.866701126098633 2.051792383193970 0.000000000000000
-13.546143531799316 -8.991860389709473 0.653024554252625 0.000000000000000
-13.543008804321289 -12.648523330688477 -0.430235326290131 0.000000000000000
-13.541992187500000 -20.123767852783203 1.394342303276062 0.000000000000000
-13.535630226135254 -9.882660865783691 -0.131631389260292 0.000000000000000
-13.534383773803711 -21.473953247070312 0.921889960765839 0.000000000000000
-13.529697418212891 -13.385013580322266 -0.076399147510529 0.000000000000000
-13.528313636779785 -9.859232902526855 0.640151023864746 0.000000000000000
-13.526915550231934 -7.368375301361084 1.271818518638611 0.000000000000000
-13.525426864624023 -12.460817337036133 1.553987741470337 0.000000000000000
-13.524601936340332 -21.190176010131836 0.285198152065277 0.000000000000000
-13.522929191589355 -30.488922119140625 2.110101699829102 0.000000000000000
-13.522082328796387 -11.937264442443848 2.208313703536987 0.000000000000000
-13.512160301208496 -12.046508789062500 1.720744252204895 0.000000000000000
-13.511488914489746 -12.642054557800293 -0.678494870662689 0.000000000000000
-13.509312629699707 -11.284324645996094 0.876289486885071 0.000000000000000
-13.501739501953125 -1.326473951339722 -0.184703201055527 0.000000000000000
-13.496041297912598 -9.258933067321777 1.858970284461975 0.000000000000000
-13.491514205932617 -11.943843841552734 1.712795376777649 0.000000000000000
-13.479777336120605 -20.243436813354492 1.914088368415833 0.000000000000000
-13.479411125183105 -9.474195480346680 0.060387559235096 0.000000000000000
-13.477943420410156 -11.663437843322754 0.065328232944012 0.000000000000000
-13.476925849914551 -9.475962638854980 -0.192661106586456 0.000000000000000
-13.472134590148926 -8.957984924316406 -0.220260739326477 0.000000000000000
-13.468662261962891 -8.746316909790039 1.611429810523987 0.000000000000000
-13.464314460754395 -10.084327697753906 0.578620493412018 0.000000000000000
-13.462965011596680 -5.620366573333740 -0.450832724571228 0.000000000000000
-13.461400032043457 -24.508485794067383 0.746862649917603 0.000000000000000
-13.460304260253906 -22.110490798950195 0.741130411624908 0.000000000000000
-13.459769248962402 -10.110292434692383 0.449634134769440 0.000000000000000
-13.452778816223145 -12.221364021301270 1.535800695419312 0.000000000000000
-13.452644348144531 -12.128980636596680 -0.733831822872162 0.000000000000000
-13.442728996276855 -14.666049957275391 0.225708156824112 0.000000000000000
-13.441993713378906 -7.261391639709473 1.870480179786682 0.000000000000000
-13.435046195983887 -12.588137626647949 2.728537559509277 0.000000000000000
-13.432402610778809 -23.629938125610352 1.457793593406677 0.000000000000000
-13.429330825805664 -8.542912483215332 0.792359828948975 0.000000000000000
-13.428833007812500 -9.360418319702148 0.594510138034821 0.000000000000000
-13.427200317382812 -20.310157775878906 1.540336370468140 0.000000000000000
-13.425908088684082 -13.466276168823242 -0.112842552363873 0.000000000000000
-13.420208930969238 -24.911535263061523 0.810160636901855 0.000000000000000
-13.418914794921875 -14.555183410644531 1.725048780441284 0.000000000000000
-13.416795730590820 -25.586692810058594 2.217968225479126 0.000000000000000
-13.414966583251953 -10.756648063659668 -0.928236126899719 0.000000000000000
-13.410432815551758 -11.597652435302734 1.224240422248840 0.000000000000000
-13.401779174804688 -6.927253246307373 1.274781823158264 0.000000000000000
-13.400830268859863 -33.805259704589844 2.581124544143677 0.000000000000000
-13.394939422607422 -19.336099624633789 1.397495508193970 0.000000000000000
-13.392139434814453 -8.161128997802734 1.920061588287354 0.000000000000000
-13.390004158020020 -9.010604858398438 1.975961923599243 0.000000000000000
-13.376366615295410 -8.394883155822754 0.786194324493408 0.000000000000000
-13.375626564025879 -7.650377750396729 1.886521220207214 0.000000000000000
-13.356875419616699 -11.089879989624023 0.730661451816559 0.000000000000000
-13.354999542236328 -21.354215621948242 0.527581453323364 0.000000000000000
-13.354990959167480 -18.306217193603516 -0.047458957880735 0.000000000000000
-13.352319717407227 -31.165315628051758 2.537441730499268 0.000000000000000
-13.351596832275391 -12.648951530456543 0.067410051822662 0.000000000000000
-13.348646163940430 -20.284322738647461 1.021984100341797 0.000000000000000
-13.341161727905273 -11.299722671508789 0.399807542562485 0.000000000000000
-13.336230278015137 -16.769544601440430 3.175377368927002 0.000000000000000
-13.335295677185059 -9.934029579162598 1.405122995376587 0.000000000000000
-13.334892272949219 -25.332580566406250 2.142496585845947 0.000000000000000
-13.333691596984863 -9.387774467468262 3.391857147216797 0.000000000000000
-13.328316688537598 -11.272075653076172 1.982661008834839 0.000000000000000
-13.325908660888672 -8.947214126586914 -0.897386491298676 0.000000000000000
-13.320365905761719 -25.358661651611328 0.820120215415955 0.000000000000000
-13.319514274597168 -11.383175849914551 1.665480613708496 0.000000000000000
-13.311912536621094 -11.867981910705566 1.334694385528564 0.000000000000000
-13.310381889343262 -8.439204216003418 1.373302698135376 0.000000000000000
-13.309355735778809 -11.915837287902832 -0.998758375644684 0.000000000000000
-13.304864883422852 -11.918504714965820 2.377025127410889 0.000000000000000
-13.301200866699219 -20.942375183105469 1.521752595901489 0.000000000000000
-13.292975425720215 -11.192137718200684 0.965451776981354 0.000000000000000
-13.287728309631348 -16.703767776489258 1.597394347190857 0.000000000000000
-13.283279418945312 -10.716723442077637 1.487194657325745 0.000000000000000
-13.278044700622559 -9.754408836364746 0.060387559235096 0.000000000000000
-13.274773597717285 -12.336544990539551 1.041739344596863 0.000000000000000
-13.272947311401367 -7.693438529968262 1.878257632255554 0.000000000000000
-13.270268440246582 -9.388226509094238 1.091083049774170 0.000000000000000
-13.269420623779297 -24.895322799682617 0.536751329898834 0.000000000000000
-13.262324333190918 -11.942290306091309 -0.208704531192780 0.000000000000000
-13.257532119750977 -8.478221893310547 0.480798393487930 0.000000000000000
-13.252645492553711 -19.434215545654297 1.805849909782410 0.000000000000000
-13.242686271667480 -10.818955421447754 0.358199149370193 0.000000000000000
-13.242277145385742 -8.620020866394043 1.274071216583252 0.000000000000000
-13.236096382141113 -9.083661079406738 -0.465232729911804 0.000000000000000
-13.231277465820312 -10.753539085388184 1.545678257942200 0.000000000000000
-13.230422973632812 -12.263519287109375 0.932802736759186 0.000000000000000
-13.224412918090820 -25.261600494384766 0.597277820110321 0.000000000000000
-13.221508026123047 -25.117183685302734 1.249222159385681 0.000000000000000
-13.221490859985352 -24.262018203735352 2.014523744583130 0.000000000000000
-13.220212936401367 -8.689340591430664 1.122905254364014 0.000000000000000
-13.219987869262695 -8.224875450134277 0.565474212169647 0.000000000000000
-13.214663505554199 -23.691438674926758 2.239835739135742 0.000000000000000
-13.211959838867188 -11.673340797424316 0.877681672573090 0.000000000000000
-13.208904266357422 -9.332370758056641 0.307715117931366 0.000000000000000
-13.207281112670898 -9.415098190307617 -0.376571983098984 0.000000000000000
-13.203577041625977 -7.134980678558350 2.224230051040649 0.000000000000000
-13.198373794555664 -10.499215126037598 0.709804594516754 0.000000000000000
-13.198040962219238 -8.775732040405273 -0.459323167800903 0.000000000000000
-13.196589469909668 -12.388955116271973 0.344391345977783 0.000000000000000
-13.193177223205566 -7.236829757690430 2.230094194412231 0.000000000000000
-13.193053245544434 -10.543950080871582 -0.716709136962891 0.000000000000000
-13.182595252990723 -8.985143661499023 0.579411447048187 0.000000000000000
-13.181712150573730 -7.860682964324951 -0.710350513458252 0.000000000000000
-13.178615570068359 -14.377902984619141 -0.078293874859810 0.000000000000000
-13.169720649719238 -24.586143493652344 0.209325164556503 0.000000000000000
-13.169472694396973 -11.775695800781250 2.006586551666260 0.000000000000000
-13.169164657592773 -8.808004379272461 0.636329710483551 0.000000000000000
-13.167771339416504 -12.820312500000000 2.445618629455566 0.000000000000000
-13.157568931579590 -13.074241638183594 -0.751481413841248 0.000000000000000
-13.153237342834473 -8.898049354553223 1.065902113914490 0.000000000000000
-13.148709297180176 -9.461535453796387 1.983253479003906 0.000000000000000
-13.147069931030273 -19.279396057128906 1.071897864341736 0.000000000000000
-13.140896797180176 -20.121232986450195 1.752164602279663 0.000000000000000
-13.135636329650879 -11.047137260437012 0.656353473663330 0.000000000000000
-13.130526542663574 -23.734970092773438 0.776618599891663 0.000000000000000
-13.121804237365723 -9.307272911071777 1.529214024543762 0.000000000000000
-13.121479034423828 -26.699302673339844 0.394633889198303 0.000000000000000
-13.119002342224121 -8.989835739135742 -0.950420677661896 0.000000000000000
-13.113173484802246 -17.088184356689453 1.612021803855896 0.000000000000000
-13.112632751464844 -14.502878189086914 -0.078486546874046 0.000000000000000
-13.109795570373535 -11.176267623901367 -0.168381109833717 0.000000000000000
-13.107279777526855 -33.761119842529297 2.081871986389160 0.000000000000000
-13.101664543151855 -10.780225753784180 -0.426508009433746 0.000000000000000
-13.100952148437500 -30.890890121459961 2.511172056198120 0.000000000000000
-13.094677925109863 -20.776306152343750 0.514429628849030 0.000000000000000
-13.094492912292480 -9.678101539611816 -0.409319013357162 0.000000000000000
-13.094436645507812 -14.788086891174316 2.927328348159790 0.000000000000000
-13.090969085693359 -11.384618759155273 0.330086112022400 0.000000000000000
-13.080968856811523 -10.783886909484863 0.713504970073700 0.000000000000000
-13.076711654663086 -20.022954940795898 1.006509661674500 0.000000000000000
-13.076520919799805 -26.202239990234375 0.838436663150787 0.000000000000000
-13.072431564331055 -21.331436157226562 2.510395765304565 0.000000000000000
-13.063901901245117 -9.312888145446777 0.120407745242119 0.000000000000000
-13.063153266906738 -12.759382247924805 2.706254243850708 0.000000000000000
-13.058877944946289 -10.966252326965332 1.375019550323486 0.000000000000000
-13.058718681335449 -16.534021377563477 2.002740621566772 0.000000000000000
-13.052796363830566 -21.782012939453125 2.413811445236206 0.000000000000000
-13.051800727844238 -25.220401763916016 0.376700818538666 0.000000000000000
-13.051150321960449 -10.988530158996582 1.210981845855713 0.000000000000000
-13.043582916259766 -19.952436447143555 2.077142000198364 0.000000000000000
-13.041117668151855 -9.489537239074707 1.831884860992432 0.000000000000000
-13.032992362976074 -9.922728538513184 0.878532230854034 0.000000000000000
-13.030674934387207 -11.921183586120605 1.492353677749634 0.000000000000000
-13.026372909545898 -9.089353561401367 1.127436518669128 0.000000000000000
-13.019057273864746 -22.421161651611328 1.141060709953308 0.000000000000000
-13.010399818420410 -10.323752403259277 1.082772254943848 0.000000000000000
-13.005056381225586 -10.777085304260254 -0.684283673763275 0.000000000000000
-12.999748229980469 -8.092888832092285 2.037751674652100 0.000000000000000
-12.990870475769043 -8.269087791442871 -0.623886585235596 0.000000000000000
-12.988130569458008 -23.134178161621094 2.662153720855713 0.000000000000000
-12.987668991088867 -15.410250663757324 1.430465221405029 0.000000000000000
-12.985120773315430 -11.463235855102539 1.430137634277344 0.000000000000000
-12.983536720275879 -17.851957321166992 2.507217407226562 0.000000000000000
-12.979589462280273 -19.584762573242188 3.482066631317139 0.000000000000000
-12.968851089477539 -23.417633056640625 1.951697349548340 0.000000000000000
-12.965864181518555 -9.871620178222656 0.623184263706207 0.000000000000000
-12.958826065063477 -10.437050819396973 -0.162634193897247 0.000000000000000
-12.958268165588379 -11.601509094238281 1.167429447174072 0.000000000000000
-12.943596839904785 -10.344583511352539 1.881993055343628 0.000000000000000
-12.939104080200195 -16.513130187988281 2.105042457580566 0.000000000000000
-12.938351631164551 -7.403272151947021 -0.718627393245697 0.000000000000000
-12.936241149902344 -11.938055038452148 1.011896729469299 0.000000000000000
-12.925255775451660 -11.410387039184570 1.157249808311462 0.000000000000000
-12.924113273620605 -8.221524238586426 1.739794015884399 0.000000000000000
-12.922333717346191 -20.440319061279297 1.110809326171875 0.000000000000000
-12.914128303527832 -20.268007278442383 0.595738589763641 0.000000000000000
-12.909507751464844 -9.081037521362305 0.118456482887268 0.000000000000000
-12.908906936645508 -8.856130599975586 0.538469076156616 0.000000000000000
-12.907931327819824 -8.536452293395996 0.800194323062897 0.000000000000000
-12.906102180480957 -8.013980865478516 -0.498655825853348 0.000000000000000
-12.901499748229980 -10.697341918945312 0.125781208276749 0.000000000000000
-12.899058341979980 -8.972092628479004 -0.697015404701233 0.000000000000000
-12.893407821655273 -12.495458602905273 0.203700020909309 0.000000000000000
-12.891882896423340 -23.088121414184570 2.397245883941650 0.000000000000000
-12.889801025390625 -10.327414512634277 0.949456632137299 0.000000000000000
-12.885701179504395 -11.624345779418945 1.466420173645020 0.000000000000000
-12.882887840270996 -10.758024215698242 1.158936619758606 0.000000000000000
-12.877397537231445 -12.637802124023438 -0.210996434092522 0.000000000000000
-12.875051498413086 -8.266906738281250 -0.590464591979980 0.000000000000000
-12.874072074890137 -21.994308471679688 2.422517299652100 0.000000000000000
-12.871553421020508 -12.645309448242188 -0.072433069348335 0.000000000000000
-12.865661621093750 -9.329626083374023 1.510666608810425 0.000000000000000
-12.865394592285156 -8.948677062988281 1.233377099037170 0.000000000000000
-12.865386009216309 -8.400285720825195 1.392916202545166 0.000000000000000
-12.864304542541504 -23.606565475463867 1.131482362747192 0.000000000000000
-12.863837242126465 -11.362565994262695 0.392491787672043 0.000000000000000
-12.860095977783203 -7.800932884216309 -0.898878872394562 0.000000000000000
-12.859989166259766 -26.635375976562500 0.392352491617203 0.000000000000000
-12.851191520690918 -25.884023666381836 0.272372066974640 0.000000000000000
-12.850225448608398 -15.934561729431152 1.783730864524841 0.000000000000000
-12.846015930175781 -11.931407928466797 -0.642877221107483 0.000000000000000
-12.837806701660156 -11.493659973144531 -0.168420195579529 0.000000000000000
