# This PCD file was generated using the MATLAB® pcwrite function
# from Computer Vision Toolbox®.
# .PCD v.7 - Point Cloud Data file format
VERSION .7
FIELDS x y z intensity
SIZE 8 8 8 8
TYPE F F F F
COUNT 1 1 1 1
WIDTH 639
HEIGHT 1
VIEWPOINT 0 0 0 1 0 0 0
POINTS 639
DATA ascii
13.610961914062500 -16.565538406372070 1.604558944702148 0.000000000000000
13.617581367492676 -13.670924186706543 2.362404823303223 0.000000000000000
13.624692916870117 -16.232671737670898 1.586050391197205 0.000000000000000
13.627064704895020 -15.884376525878906 1.823662638664246 0.000000000000000
13.629673957824707 -18.834192276000977 1.874617457389832 1.000000000000000
13.641750335693359 -14.400048255920410 2.112832069396973 0.000000000000000
13.655220031738281 -20.532539367675781 3.654469251632690 0.000000000000000
13.655278205871582 -16.159984588623047 1.583363771438599 0.000000000000000
13.664571762084961 -20.880065917968750 1.050241708755493 1.000000000000000
13.680304527282715 -6.496471881866455 1.250424146652222 0.000000000000000
13.681312561035156 -19.317092895507812 2.898077726364136 1.000000000000000
13.684305191040039 -17.014974594116211 0.625164270401001 0.000000000000000
13.686118125915527 -8.381607055664062 2.378454446792603 0.000000000000000
13.688579559326172 -12.212372779846191 1.479182839393616 0.000000000000000
13.698763847351074 -17.253826141357422 0.969585061073303 0.000000000000000
13.706184387207031 -15.547708511352539 1.970188021659851 0.000000000000000
13.709144592285156 -12.564758300781250 2.474638938903809 0.000000000000000
13.710353851318359 -20.645120620727539 3.034183263778687 1.000000000000000
13.713313102722168 -15.624929428100586 -1.202341794967651 0.000000000000000
13.724978446960449 -12.033093452453613 1.366039276123047 0.000000000000000
13.726014137268066 -8.103321075439453 2.121119022369385 0.000000000000000
13.730700492858887 -16.920949935913086 0.623904943466187 0.000000000000000
13.730922698974609 -15.814565658569336 1.163601279258728 0.000000000000000
13.746879577636719 -15.837406158447266 2.567535400390625 0.000000000000000
13.748785018920898 -16.589338302612305 2.295009136199951 0.000000000000000
13.751955032348633 -6.408550739288330 1.047616958618164 0.000000000000000
13.754858970642090 -16.300897598266602 2.611283540725708 0.000000000000000
13.766795158386230 -16.075618743896484 3.136674642562866 0.000000000000000
13.768174171447754 -15.938204765319824 -1.055876374244690 0.000000000000000
13.770370483398438 -9.274950027465820 1.114388823509216 0.000000000000000
13.786175727844238 -15.107317924499512 1.854091763496399 0.000000000000000
13.787201881408691 -7.769005775451660 1.214922428131104 0.000000000000000
13.788798332214355 -15.992523193359375 1.743484258651733 0.000000000000000
13.790042877197266 -16.033535003662109 1.746117353439331 0.000000000000000
13.794333457946777 -13.103149414062500 2.160974025726318 0.000000000000000
13.798654556274414 -12.383433341979980 2.467251777648926 0.000000000000000
13.810107231140137 -15.906886100769043 -1.137170076370239 1.000000000000000
13.824459075927734 -16.984329223632812 0.164356127381325 0.000000000000000
13.827258110046387 -16.421558380126953 0.119899310171604 0.000000000000000
13.833452224731445 -12.255171775817871 2.099128723144531 0.000000000000000
13.835260391235352 -9.679638862609863 1.361516833305359 0.000000000000000
13.846746444702148 -14.794885635375977 1.712282896041870 0.000000000000000
13.853830337524414 -6.733633995056152 1.271818518638611 0.000000000000000
13.862854003906250 -21.358348846435547 0.239988982677460 1.000000000000000
13.863460540771484 -15.489648818969727 2.085872888565063 0.000000000000000
13.878704071044922 -18.510927200317383 0.040379919111729 1.000000000000000
13.883225440979004 -6.339245319366455 1.868535757064819 0.000000000000000
13.885970115661621 -21.380884170532227 0.289236754179001 1.000000000000000
13.886871337890625 -9.788126945495605 -0.459729999303818 0.000000000000000
13.890292167663574 -16.418333053588867 -1.409568428993225 0.000000000000000
13.907825469970703 -10.601063728332520 0.399899005889893 0.000000000000000
13.912443161010742 -15.764478683471680 0.319284558296204 0.000000000000000
13.917062759399414 -14.519679069519043 2.980691194534302 0.000000000000000
13.920781135559082 -7.121783256530762 1.362538456916809 0.000000000000000
13.922867774963379 -7.180281639099121 1.571892738342285 0.000000000000000
13.934342384338379 -9.707721710205078 2.516845703125000 0.000000000000000
13.936572074890137 -20.672712326049805 3.694931030273438 0.000000000000000
13.938584327697754 -8.544253349304199 1.482117652893066 0.000000000000000
13.951741218566895 -9.616757392883301 1.366339206695557 0.000000000000000
13.962672233581543 -12.587058067321777 2.786005258560181 0.000000000000000
13.964125633239746 -11.851661682128906 0.947054982185364 0.000000000000000
13.964714050292969 -19.356853485107422 2.268838882446289 1.000000000000000
13.972706794738770 -9.360622406005859 1.064016580581665 0.000000000000000
13.972881317138672 -16.312808990478516 -0.746311247348785 0.000000000000000
13.974206924438477 -6.995321750640869 1.913256168365479 0.000000000000000
13.978697776794434 -22.468202590942383 -0.868579745292664 1.000000000000000
13.983076095581055 -9.007333755493164 1.889215946197510 0.000000000000000
13.989825248718262 -6.624315261840820 1.128552198410034 0.000000000000000
13.994612693786621 -14.961246490478516 1.691479325294495 0.000000000000000
14.001603126525879 -19.336771011352539 2.922868490219116 1.000000000000000
14.015175819396973 -8.911811828613281 1.666541814804077 0.000000000000000
14.021651268005371 -15.864208221435547 -1.224513292312622 1.000000000000000
14.032938957214355 -21.786546707153320 1.839412331581116 1.000000000000000
14.037002563476562 -16.245391845703125 -0.663461685180664 0.000000000000000
14.045001983642578 -7.171421527862549 0.754726409912109 0.000000000000000
14.045034408569336 -9.665884017944336 2.268858671188354 0.000000000000000
14.053606033325195 -5.313498973846436 1.507595300674438 0.000000000000000
14.073136329650879 -15.373208045959473 2.367275714874268 0.000000000000000
14.077043533325195 -19.748405456542969 2.754598617553711 1.000000000000000
14.084401130676270 -8.854323387145996 1.148741483688354 0.000000000000000
14.085931777954102 -7.512026786804199 1.601845026016235 0.000000000000000
14.087801933288574 -12.319478988647461 1.183980464935303 0.000000000000000
14.115001678466797 -12.444484710693359 1.888188242912292 0.000000000000000
14.128294944763184 -15.018296241760254 2.196294546127319 0.000000000000000
14.134639739990234 -22.060132980346680 -1.212644696235657 1.000000000000000
14.147006988525391 -17.162910461425781 2.723084688186646 0.000000000000000
14.153800964355469 -15.299706459045410 1.889483451843262 0.000000000000000
14.155251502990723 -8.949268341064453 2.050334215164185 0.000000000000000
14.163011550903320 -12.089516639709473 1.321714758872986 0.000000000000000
14.170043945312500 -8.175142288208008 1.098047852516174 0.000000000000000
14.175472259521484 -19.151456832885742 1.967303156852722 1.000000000000000
14.177713394165039 -0.115803994238377 -1.367701411247253 0.000000000000000
14.182241439819336 -8.031115531921387 1.995405554771423 0.000000000000000
14.184617042541504 -9.449952125549316 -0.821673631668091 0.000000000000000
14.184807777404785 -5.223491191864014 1.043759346008301 0.000000000000000
14.197432518005371 -7.311843872070312 1.701026797294617 0.000000000000000
14.199077606201172 -8.252785682678223 2.185491323471069 0.000000000000000
14.203001022338867 -19.861970901489258 2.989462852478027 1.000000000000000
14.214233398437500 -9.430332183837891 -0.691084384918213 0.000000000000000
14.214698791503906 -14.928992271423340 1.796231269836426 0.000000000000000
14.215228080749512 -15.539858818054199 2.243321657180786 0.000000000000000
14.215394973754883 -19.588808059692383 2.963213920593262 1.000000000000000
14.217871665954590 -15.326515197753906 2.226798534393311 0.000000000000000
14.230031967163086 -7.256195068359375 1.814279198646545 0.000000000000000
14.245866775512695 -8.397486686706543 0.950604438781738 0.000000000000000
14.254387855529785 -14.891367912292480 2.523787260055542 0.000000000000000
14.258509635925293 -13.510969161987305 3.357656717300415 0.000000000000000
14.258913993835449 -4.767922401428223 1.601464748382568 0.000000000000000
14.262124061584473 -17.870971679687500 3.908279895782471 0.000000000000000
14.283520698547363 -8.678371429443359 1.250809550285339 0.000000000000000
14.283724784851074 -13.069373130798340 1.411562800407410 0.000000000000000
14.284356117248535 -4.958130836486816 3.145043611526489 0.000000000000000
14.296815872192383 -11.609594345092773 3.148055553436279 0.000000000000000
14.300767898559570 -5.477526187896729 2.617651224136353 0.000000000000000
14.302542686462402 -7.756275653839111 1.632596015930176 0.000000000000000
14.303933143615723 -12.011363029479980 1.874210596084595 0.000000000000000
14.308983802795410 -16.075859069824219 2.444469451904297 0.000000000000000
14.315212249755859 -14.379315376281738 1.636070609092712 0.000000000000000
14.323284149169922 -15.548652648925781 2.251795053482056 0.000000000000000
14.323869705200195 -6.218982696533203 1.663320302963257 0.000000000000000
14.326062202453613 -7.090339183807373 1.957004308700562 0.000000000000000
14.329539299011230 -19.209154129028320 1.562356233596802 1.000000000000000
14.345945358276367 -6.288174152374268 1.232749462127686 0.000000000000000
14.346440315246582 -16.005098342895508 2.441309452056885 0.000000000000000
14.356387138366699 -6.568623542785645 1.334058403968811 0.000000000000000
14.361778259277344 -15.177067756652832 2.096655845642090 0.000000000000000
14.365552902221680 -17.628978729248047 1.263452529907227 1.000000000000000
14.367327690124512 -19.318138122558594 2.415746688842773 1.000000000000000
14.373843193054199 -4.296504020690918 1.006968021392822 0.000000000000000
14.381908416748047 -4.334486484527588 1.240220546722412 0.000000000000000
14.388434410095215 -4.793647766113281 1.281517863273621 0.000000000000000
14.389219284057617 -13.562561035156250 1.670856833457947 0.000000000000000
14.398936271667480 -8.301840782165527 1.404449224472046 0.000000000000000
14.406767845153809 -7.189857959747314 1.329419016838074 0.000000000000000
14.409192085266113 -11.694173812866211 2.271991729736328 0.000000000000000
14.429488182067871 -4.406579971313477 1.847147822380066 0.000000000000000
14.431183815002441 -14.742812156677246 1.543958783149719 0.000000000000000
14.431858062744141 -5.198064327239990 1.000022530555725 0.000000000000000
14.433962821960449 -18.989189147949219 2.393382549285889 1.000000000000000
14.439010620117188 -6.657697200775146 1.128569364547729 0.000000000000000
14.441954612731934 -5.849006652832031 1.256389141082764 0.000000000000000
14.443846702575684 -15.168593406677246 1.567542076110840 0.000000000000000
14.445425033569336 -4.435163021087646 1.218453168869019 0.000000000000000
14.447349548339844 -7.396901130676270 1.542840719223022 0.000000000000000
14.452803611755371 -18.099531173706055 0.307249933481216 1.000000000000000
14.453276634216309 -19.047010421752930 2.167561054229736 1.000000000000000
14.461739540100098 -4.540906429290771 1.017415523529053 0.000000000000000
14.464768409729004 -7.172823905944824 1.114849567413330 0.000000000000000
14.465682983398438 -15.754471778869629 2.618574857711792 0.000000000000000
14.471282005310059 -4.121979236602783 1.602735757827759 0.000000000000000
14.474216461181641 -3.959426164627075 0.949356317520142 0.000000000000000
14.484695434570312 -16.058116912841797 2.303482532501221 0.000000000000000
14.489230155944824 -5.563634872436523 1.311492919921875 0.000000000000000
14.495875358581543 -6.925982475280762 0.923516452312469 0.000000000000000
14.498290061950684 -8.080917358398438 1.178130149841309 0.000000000000000
14.505085945129395 -15.126819610595703 1.992142081260681 0.000000000000000
14.508527755737305 -9.665743827819824 1.657153248786926 0.000000000000000
14.512769699096680 -9.825144767761230 2.995741367340088 0.000000000000000
14.520282745361328 -3.774673938751221 3.120606422424316 0.000000000000000
14.529919624328613 -17.880334854125977 0.128678977489471 0.000000000000000
14.541969299316406 -9.750078201293945 1.756797790527344 0.000000000000000
14.543299674987793 -4.453549861907959 2.024033069610596 0.000000000000000
14.547101020812988 -11.577919006347656 2.474111318588257 0.000000000000000
14.549171447753906 -19.250019073486328 1.945667147636414 1.000000000000000
14.554811477661133 -5.485584259033203 1.194102168083191 0.000000000000000
14.555876731872559 -6.348417282104492 1.127153396606445 0.000000000000000
14.556520462036133 -4.271521091461182 2.248272657394409 0.000000000000000
14.565351486206055 -11.379289627075195 1.968784928321838 0.000000000000000
14.571743965148926 -3.859817743301392 1.273771405220032 0.000000000000000
14.575308799743652 -5.452673912048340 1.561509251594543 0.000000000000000
14.581023216247559 -4.563267707824707 2.611585617065430 0.000000000000000
14.583722114562988 -19.548465728759766 2.060869455337524 1.000000000000000
14.589616775512695 -3.919102191925049 2.010314226150513 0.000000000000000
14.591477394104004 -8.766750335693359 1.933455467224121 0.000000000000000
14.592041015625000 -18.928323745727539 2.398174762725830 1.000000000000000
14.598998069763184 -19.315946578979492 2.750084400177002 1.000000000000000
14.606802940368652 -6.855387210845947 1.975475907325745 0.000000000000000
14.608514785766602 -3.634729623794556 1.126624226570129 0.000000000000000
14.608557701110840 -8.292746543884277 1.127514958381653 0.000000000000000
14.610213279724121 -4.585844993591309 2.037751674652100 0.000000000000000
14.612597465515137 -8.948298454284668 1.628764271736145 0.000000000000000
14.613567352294922 -15.590198516845703 2.616144657135010 0.000000000000000
14.620526313781738 -11.987228393554688 2.147431373596191 0.000000000000000
14.621124267578125 -11.017407417297363 1.440822958946228 0.000000000000000
14.627889633178711 -17.677057266235352 2.181022644042969 0.000000000000000
14.631217002868652 -11.012606620788574 1.476610898971558 0.000000000000000
14.633181571960449 -13.761670112609863 1.658564567565918 0.000000000000000
14.637856483459473 -15.014639854431152 2.381721019744873 0.000000000000000
14.638659477233887 -15.429166793823242 2.830269336700439 0.000000000000000
14.640453338623047 -11.459788322448730 1.767302036285400 0.000000000000000
14.647778511047363 -13.440099716186523 1.602957010269165 0.000000000000000
14.649025917053223 -17.597286224365234 1.272106409072876 1.000000000000000
14.652892112731934 -5.337851047515869 1.076824545860291 0.000000000000000
14.654775619506836 -12.982789039611816 1.276375293731689 0.000000000000000
14.655544281005859 -18.763639450073242 1.735876202583313 0.000000000000000
14.657765388488770 -14.987891197204590 3.583432435989380 0.000000000000000
14.674283027648926 -8.056585311889648 1.091359496116638 0.000000000000000
14.681648254394531 -13.812082290649414 2.467886686325073 0.000000000000000
14.682889938354492 -19.136497497558594 -0.606338977813721 0.000000000000000
14.684369087219238 -17.592859268188477 0.744183838367462 1.000000000000000
14.692410469055176 -4.098877906799316 1.382804274559021 0.000000000000000
14.708147048950195 -9.620342254638672 1.996203899383545 0.000000000000000
14.709484100341797 -18.361747741699219 1.579163908958435 0.000000000000000
14.711126327514648 -7.373528003692627 1.263298869132996 0.000000000000000
14.721242904663086 -13.104169845581055 2.920878171920776 0.000000000000000
14.724392890930176 -22.736076354980469 0.151287153363228 1.000000000000000
14.735146522521973 -8.564359664916992 1.440149784088135 0.000000000000000
14.741318702697754 -2.860616445541382 1.427392601966858 0.000000000000000
14.743509292602539 -7.648185729980469 1.886507391929626 0.000000000000000
14.743540763854980 -5.035771369934082 1.769588112831116 0.000000000000000
14.750609397888184 -4.591196537017822 1.645526289939880 0.000000000000000
14.756745338439941 -7.062647819519043 2.177049160003662 0.000000000000000
14.765067100524902 -15.341031074523926 1.799177050590515 0.000000000000000
14.767773628234863 -11.085538864135742 1.310669779777527 0.000000000000000
14.771707534790039 -3.640856981277466 1.285559415817261 0.000000000000000
14.773979187011719 -2.745930433273315 1.600617408752441 0.000000000000000
14.778667449951172 -2.727326154708862 1.037697434425354 0.000000000000000
14.779969215393066 -6.077383041381836 1.956518292427063 0.000000000000000
14.782770156860352 -12.434144973754883 1.751166939735413 0.000000000000000
14.787555694580078 -9.475592613220215 1.077275514602661 0.000000000000000
14.791710853576660 -6.623469352722168 1.540569543838501 0.000000000000000
14.791989326477051 -8.968583106994629 1.361422419548035 0.000000000000000
14.796475410461426 -19.617057800292969 3.641568660736084 0.000000000000000
14.797864913940430 -4.367037773132324 1.888951659202576 0.000000000000000
14.801304817199707 -4.875582695007324 1.907909154891968 0.000000000000000
14.802537918090820 -4.860529422760010 1.412417769432068 0.000000000000000
14.807444572448730 -12.258926391601562 1.928923368453979 0.000000000000000
14.816938400268555 -23.512514114379883 -1.339794158935547 1.000000000000000
14.817018508911133 -18.374740600585938 -1.365163683891296 0.000000000000000
14.817493438720703 -2.521090745925903 1.270066738128662 0.000000000000000
14.818346977233887 -3.329133033752441 0.785322427749634 0.000000000000000
14.818535804748535 -3.540660619735718 0.993256807327271 0.000000000000000
14.819163322448730 -8.974097251892090 1.967763900756836 0.000000000000000
14.824042320251465 -17.063932418823242 -0.437960892915726 0.000000000000000
14.824704170227051 -8.599802970886230 1.249551534652710 0.000000000000000
14.831217765808105 -2.832425117492676 1.848606109619141 0.000000000000000
14.831449508666992 -6.666140556335449 1.342584848403931 0.000000000000000
14.832125663757324 -6.849007129669189 1.128075718879700 0.000000000000000
14.835076332092285 -4.918874263763428 2.316295623779297 0.000000000000000
14.855323791503906 -4.307998180389404 1.277084946632385 0.000000000000000
14.858248710632324 -5.074950218200684 1.266033887863159 0.000000000000000
14.862983703613281 -23.557313919067383 -1.289209485054016 1.000000000000000
14.865948677062988 -18.194364547729492 1.849124073982239 1.000000000000000
14.867341041564941 -13.226778984069824 3.401463985443115 0.000000000000000
14.868746757507324 -11.588345527648926 2.307962417602539 0.000000000000000
14.869666099548340 -3.772546291351318 2.041445255279541 0.000000000000000
14.875601768493652 -8.223294258117676 1.206450581550598 0.000000000000000
14.877893447875977 -6.875181198120117 2.006585836410522 0.000000000000000
14.882835388183594 -8.840996742248535 2.119359016418457 0.000000000000000
14.894445419311523 -7.436485767364502 2.038181781768799 0.000000000000000
14.896533012390137 -1.821411252021790 -0.925783812999725 0.000000000000000
14.898673057556152 -4.100421428680420 1.400861263275146 0.000000000000000
14.899067878723145 -18.887166976928711 -0.419904917478561 1.000000000000000
14.904212951660156 -15.461822509765625 2.629269123077393 0.000000000000000
14.906605720520020 -9.298771858215332 2.337979793548584 0.000000000000000
14.908747673034668 -11.107781410217285 1.685439467430115 0.000000000000000
14.917242050170898 -17.155485153198242 0.301572889089584 1.000000000000000
14.920930862426758 -12.841276168823242 1.663447141647339 0.000000000000000
14.921272277832031 -3.861404418945312 1.641713261604309 0.000000000000000
14.921328544616699 -8.795649528503418 2.960695505142212 0.000000000000000
14.921756744384766 -18.301095962524414 1.721623778343201 0.000000000000000
14.931416511535645 -16.074867248535156 0.122535444796085 0.000000000000000
14.936026573181152 -14.488179206848145 1.677864551544189 0.000000000000000
14.937831878662109 -7.216727733612061 2.207652091979980 0.000000000000000
14.940024375915527 -11.614585876464844 1.562454104423523 0.000000000000000
14.954951286315918 -18.822519302368164 -0.419625669717789 1.000000000000000
14.958604812622070 -17.326042175292969 3.392346858978271 0.000000000000000
14.959620475769043 -12.696559906005859 1.620054721832275 0.000000000000000
14.965613365173340 -13.789572715759277 1.483697175979614 0.000000000000000
14.967456817626953 -11.970620155334473 1.821808695793152 0.000000000000000
14.968046188354492 -4.601626873016357 1.667980670928955 0.000000000000000
14.971220970153809 -15.396318435668945 2.041349411010742 0.000000000000000
14.971521377563477 -11.352065086364746 1.442414283752441 0.000000000000000
14.973548889160156 -3.074172496795654 1.871452331542969 0.000000000000000
14.974014282226562 -6.801338672637939 1.867998838424683 0.000000000000000
14.980351448059082 -3.326276063919067 1.634510874748230 0.000000000000000
14.984106063842773 -9.025086402893066 1.755200266838074 0.000000000000000
14.995823860168457 -6.563361644744873 1.067159056663513 0.000000000000000
14.996967315673828 -4.521568775177002 1.420001626014709 0.000000000000000
14.998557090759277 -3.769881963729858 0.978400230407715 0.000000000000000
15.001374244689941 -5.602517604827881 1.705687046051025 0.000000000000000
15.001699447631836 -4.918964862823486 2.339751720428467 0.000000000000000
15.013992309570312 -9.632153511047363 1.334992885589600 0.000000000000000
15.016238212585449 -4.107696533203125 1.658236265182495 0.000000000000000
15.019279479980469 -11.049717903137207 1.251544356346130 0.000000000000000
15.019889831542969 -16.768768310546875 0.039290834218264 1.000000000000000
15.025224685668945 -23.270854949951172 -0.004834562074393 1.000000000000000
15.026729583740234 -10.591553688049316 1.482397675514221 0.000000000000000
15.031146049499512 -4.311247348785400 2.317468404769897 0.000000000000000
15.033948898315430 -18.500587463378906 -0.233004748821259 1.000000000000000
15.042260169982910 -7.736646652221680 1.921267032623291 0.000000000000000
15.048690795898438 -6.873314380645752 2.827925920486450 0.000000000000000
15.056234359741211 -16.218324661254883 2.513537406921387 0.000000000000000
15.057343482971191 -1.752315163612366 -0.177272558212280 0.000000000000000
15.060220718383789 -18.981527328491211 2.431321859359741 1.000000000000000
15.065441131591797 -6.344688892364502 1.318115592002869 0.000000000000000
15.073690414428711 -4.420423030853271 1.368788599967957 0.000000000000000
15.076925277709961 -17.129117965698242 -0.179226040840149 1.000000000000000
15.078176498413086 -2.673887491226196 1.293979406356812 0.000000000000000
15.082589149475098 -12.596694946289062 3.359004497528076 0.000000000000000
15.105967521667480 -13.427743911743164 2.995351314544678 0.000000000000000
15.107099533081055 -11.453618049621582 2.153300046920776 0.000000000000000
15.109208106994629 -9.049121856689453 1.596598982810974 0.000000000000000
15.112397193908691 -18.119804382324219 -1.092064499855042 1.000000000000000
15.117016792297363 -4.192036151885986 1.234632492065430 0.000000000000000
15.117650032043457 -16.358760833740234 -0.260483056306839 1.000000000000000
15.120553016662598 -6.526961326599121 2.815120697021484 0.000000000000000
15.123619079589844 -6.431436061859131 1.866644620895386 0.000000000000000
15.129037857055664 -5.590098381042480 1.717973470687866 0.000000000000000
15.133658409118652 -17.298002243041992 0.967319071292877 1.000000000000000
15.136075973510742 -17.432947158813477 0.217596054077148 1.000000000000000
15.140476226806641 -5.613252639770508 0.959339976310730 0.000000000000000
15.147394180297852 -12.640052795410156 2.923810005187988 0.000000000000000
15.150444984436035 -2.127099037170410 1.454267501831055 0.000000000000000
15.153985977172852 -5.126099109649658 1.703992486000061 0.000000000000000
15.158732414245605 -3.994355916976929 1.173193812370300 0.000000000000000
15.158778190612793 -14.290904045104980 1.720114946365356 0.000000000000000
15.162490844726562 -4.920155525207520 2.724810361862183 0.000000000000000
15.170588493347168 -5.206480026245117 1.200359344482422 0.000000000000000
15.172317504882812 -4.980188846588135 1.955060124397278 0.000000000000000
15.174155235290527 -4.187067508697510 2.094737052917480 0.000000000000000
15.174480438232422 -6.848670959472656 1.670535445213318 0.000000000000000
15.185164451599121 -14.181219100952148 1.715506911277771 0.000000000000000
15.193178176879883 -17.295249938964844 0.836088836193085 1.000000000000000
15.197542190551758 -18.065572738647461 0.086527653038502 1.000000000000000
15.199475288391113 -1.844183564186096 0.526643633842468 0.000000000000000
15.200243949890137 -5.897616863250732 2.169661998748779 0.000000000000000
15.205105781555176 -10.638031959533691 0.923823177814484 0.000000000000000
15.206834793090820 -3.653364181518555 1.665862321853638 0.000000000000000
15.209749221801758 -3.806882619857788 1.919575333595276 0.000000000000000
15.212526321411133 -7.194826602935791 1.599618554115295 0.000000000000000
15.216744422912598 -16.448707580566406 -0.434163957834244 0.000000000000000
15.218662261962891 -18.045879364013672 -0.276058733463287 1.000000000000000
15.218884468078613 -3.730231761932373 1.489469647407532 0.000000000000000
15.230557441711426 -10.613921165466309 1.389324069023132 0.000000000000000
15.232558250427246 -10.532583236694336 1.100251913070679 0.000000000000000
15.237127304077148 -12.624969482421875 2.932606220245361 0.000000000000000
15.244514465332031 -10.598765373229980 1.174635887145996 0.000000000000000
15.247763633728027 -7.494898319244385 2.260944128036499 0.000000000000000
15.249471664428711 -11.850884437561035 1.835813999176025 0.000000000000000
15.261658668518066 -8.504301071166992 1.004321217536926 0.000000000000000
15.262639999389648 -3.892951250076294 1.239653825759888 0.000000000000000
15.264267921447754 -18.467073440551758 0.225814342498779 1.000000000000000
15.266107559204102 -4.733242034912109 1.350561499595642 0.000000000000000
15.267488479614258 -1.683388590812683 -0.858758091926575 0.000000000000000
15.276215553283691 -4.663994312286377 2.730201959609985 0.000000000000000
15.279291152954102 -11.297003746032715 1.722636938095093 0.000000000000000
15.282718658447266 -8.586084365844727 1.278056263923645 0.000000000000000
15.286430358886719 -10.306170463562012 1.486577033996582 0.000000000000000
15.293586730957031 -5.280339241027832 1.304612874984741 0.000000000000000
15.301599502563477 -11.101357460021973 1.159558892250061 0.000000000000000
15.303231239318848 -7.303201675415039 1.269019484519958 0.000000000000000
15.303584098815918 -9.031776428222656 0.884642720222473 0.000000000000000
15.305193901062012 -17.503931045532227 -0.137979328632355 1.000000000000000
15.314370155334473 -16.219425201416016 -0.475053876638412 1.000000000000000
15.315047264099121 -18.205251693725586 -0.278210341930389 1.000000000000000
15.317832946777344 -5.146687507629395 1.978392481803894 0.000000000000000
15.320669174194336 -23.377691268920898 -0.863735675811768 1.000000000000000
15.322409629821777 -6.444724559783936 1.115728139877319 0.000000000000000
15.325881958007812 -3.551221132278442 1.329343199729919 0.000000000000000
15.326303482055664 -17.586212158203125 -0.631222605705261 1.000000000000000
15.327698707580566 -18.408630371093750 0.271766394376755 1.000000000000000
15.330134391784668 -5.645252227783203 0.876175761222839 0.000000000000000
15.333589553833008 -17.132223129272461 -0.004012860823423 0.000000000000000
15.337424278259277 -5.894243240356445 1.102869868278503 0.000000000000000
15.340325355529785 -1.369627237319946 1.033756256103516 0.000000000000000
15.342421531677246 -6.239894866943359 0.984011471271515 0.000000000000000
15.365468025207520 -16.435991287231445 -0.608825802803040 0.000000000000000
15.368592262268066 0.986839175224304 2.049359798431396 0.000000000000000
15.372166633605957 -3.478648424148560 1.581477522850037 0.000000000000000
15.384674072265625 -14.613803863525391 1.710978150367737 0.000000000000000
15.386365890502930 -5.360507488250732 1.062214851379395 0.000000000000000
15.389971733093262 -1.746935844421387 1.308798551559448 0.000000000000000
15.390565872192383 -16.405345916748047 0.255203574895859 1.000000000000000
15.393315315246582 -3.860250234603882 1.802542209625244 0.000000000000000
15.394982337951660 -1.465556621551514 1.401944637298584 0.000000000000000
15.395624160766602 -16.197538375854492 -0.475905537605286 1.000000000000000
15.397637367248535 -17.583623886108398 -0.407967448234558 1.000000000000000
15.399646759033203 0.934868693351746 2.053053379058838 0.000000000000000
15.399851799011230 -19.442321777343750 0.281386435031891 1.000000000000000
15.400393486022949 -7.015442848205566 1.698091506958008 0.000000000000000
15.400460243225098 -16.473421096801758 2.561388492584229 0.000000000000000
15.400815963745117 -17.302511215209961 0.440723538398743 1.000000000000000
15.402562141418457 -6.272501945495605 2.842753171920776 0.000000000000000
15.408717155456543 -16.524984359741211 -1.437351465225220 0.000000000000000
15.410956382751465 -16.775733947753906 0.608447968959808 0.000000000000000
15.412681579589844 -4.184066772460938 1.447809457778931 0.000000000000000
15.413410186767578 -16.733800888061523 0.651379644870758 0.000000000000000
15.414368629455566 -7.735435962677002 1.837024211883545 0.000000000000000
15.417819023132324 -17.254798889160156 0.973878860473633 1.000000000000000
15.419641494750977 -6.218672275543213 2.464069366455078 0.000000000000000
15.431739807128906 -1.414718508720398 1.404833793640137 0.000000000000000
15.440002441406250 -10.380727767944336 1.320581912994385 0.000000000000000
15.441163063049316 -5.179130077362061 1.548139929771423 0.000000000000000
15.445986747741699 -18.505329132080078 0.412328630685806 1.000000000000000
15.447566986083984 -16.581726074218750 -0.787425696849823 1.000000000000000
15.450509071350098 -6.249312877655029 1.118674874305725 0.000000000000000
15.453592300415039 -4.129794120788574 1.520508170127869 0.000000000000000
15.454239845275879 -13.371782302856445 1.852647066116333 0.000000000000000
15.461100578308105 -11.141876220703125 2.164585351943970 0.000000000000000
15.462161064147949 -17.657308578491211 0.671985745429993 1.000000000000000
15.465268135070801 -18.247634887695312 0.455104887485504 1.000000000000000
15.470733642578125 -14.641201972961426 1.594110488891602 0.000000000000000
15.475912094116211 -12.247597694396973 1.591383337974548 0.000000000000000
15.479269027709961 -18.135429382324219 -0.645180046558380 1.000000000000000
15.479342460632324 -17.193964004516602 3.428703784942627 0.000000000000000
15.484014511108398 -0.943245410919189 1.310819268226624 0.000000000000000
15.490508079528809 -17.281436920166016 0.085061572492123 1.000000000000000
15.501051902770996 -4.924966335296631 2.164385795593262 0.000000000000000
15.504178047180176 -8.840558052062988 1.696519255638123 0.000000000000000
15.504331588745117 -10.911186218261719 1.309107899665833 0.000000000000000
15.510370254516602 -18.262046813964844 0.087817795574665 1.000000000000000
15.515191078186035 -5.007980823516846 1.031436920166016 0.000000000000000
15.517329216003418 -12.280375480651855 2.247647762298584 0.000000000000000
15.518822669982910 -16.834083557128906 0.435625404119492 1.000000000000000
15.521054267883301 -11.385506629943848 1.829757571220398 0.000000000000000
15.525399208068848 -17.580396652221680 0.671527802944183 1.000000000000000
15.530395507812500 -1.329239964485168 0.805977940559387 0.000000000000000
15.530662536621094 -16.872322082519531 -0.004002389032394 0.000000000000000
15.534242630004883 -6.542120456695557 1.914495706558228 0.000000000000000
15.535820007324219 -11.577513694763184 1.375240445137024 0.000000000000000
15.538728713989258 -11.104958534240723 1.576936602592468 0.000000000000000
15.546705245971680 -5.663455009460449 2.201848268508911 0.000000000000000
15.551679611206055 -13.738654136657715 3.547038793563843 0.000000000000000
15.560465812683105 -8.449346542358398 1.325141668319702 0.000000000000000
15.563424110412598 -17.045318603515625 1.015839457511902 1.000000000000000
15.566533088684082 -18.099040985107422 -0.967161834239960 1.000000000000000
15.580554962158203 -11.171454429626465 1.923731684684753 0.000000000000000
15.581746101379395 -5.528192996978760 1.440665721893311 0.000000000000000
15.582818984985352 -10.561470985412598 0.937148451805115 0.000000000000000
15.583400726318359 -5.845622539520264 2.037695646286011 0.000000000000000
15.584094047546387 -3.838782548904419 1.046341538429260 0.000000000000000
15.587138175964355 -11.817564964294434 1.577237725257874 0.000000000000000
15.593746185302734 -16.915357589721680 0.791340470314026 1.000000000000000
15.594187736511230 -12.818784713745117 2.025568962097168 0.000000000000000
15.597779273986816 -17.053033828735352 0.661682665348053 0.000000000000000
15.598261833190918 -5.865486621856689 1.086415290832520 0.000000000000000
15.598267555236816 -11.959461212158203 1.781863689422607 0.000000000000000
15.599583625793457 -3.765867710113525 0.953409314155579 0.000000000000000
15.608436584472656 -3.312551021575928 1.516722917556763 0.000000000000000
15.609837532043457 -5.370022296905518 2.446477413177490 0.000000000000000
15.614430427551270 -4.979897975921631 1.289867639541626 0.000000000000000
15.626681327819824 -6.516921997070312 1.923072814941406 0.000000000000000
15.632914543151855 -10.926779747009277 1.280207633972168 0.000000000000000
15.639192581176758 -6.277088642120361 1.326272726058960 0.000000000000000
15.641383171081543 -7.330954074859619 1.642012596130371 0.000000000000000
15.644460678100586 -16.793075561523438 -1.150608777999878 1.000000000000000
15.645692825317383 -1.447551250457764 0.600867629051208 0.000000000000000
15.647606849670410 -12.294890403747559 2.260287761688232 0.000000000000000
15.649830818176270 -15.074906349182129 1.752129197120667 0.000000000000000
15.652420043945312 -4.733495712280273 0.877032697200775 0.000000000000000
15.655719757080078 -11.129641532897949 1.511749982833862 0.000000000000000
15.659028053283691 -16.647199630737305 0.654356062412262 1.000000000000000
15.661862373352051 -17.229070663452148 0.443006306886673 1.000000000000000
15.665934562683105 -5.867227077484131 1.590155482292175 0.000000000000000
15.673913002014160 -6.086434841156006 1.128586530685425 0.000000000000000
15.676123619079590 -6.960453510284424 2.099915266036987 0.000000000000000
15.676277160644531 -5.040949821472168 2.191295385360718 0.000000000000000
15.676285743713379 -17.726293563842773 0.132164031267166 0.000000000000000
15.678944587707520 -10.087358474731445 1.287339925765991 0.000000000000000
15.680027961730957 -6.797704696655273 1.941129803657532 0.000000000000000
15.693115234375000 -3.981461763381958 1.368075013160706 0.000000000000000
15.693236351013184 -5.963181495666504 2.234034299850464 0.000000000000000
15.694570541381836 -16.554819107055664 0.434027463197708 0.000000000000000
15.696744918823242 -18.068498611450195 0.271539509296417 1.000000000000000
15.708407402038574 -13.617608070373535 1.716494202613831 0.000000000000000
15.714614868164062 -16.927520751953125 -1.335832715034485 1.000000000000000
15.720463752746582 -6.963396549224854 1.725248098373413 0.000000000000000
15.724366188049316 -11.583685874938965 2.218305110931396 0.000000000000000
15.726744651794434 -5.965864658355713 2.492803335189819 0.000000000000000
15.728920936584473 -18.169490814208984 -1.389875650405884 1.000000000000000
15.735712051391602 -3.312592983245850 1.826467633247375 0.000000000000000
15.739765167236328 -4.448564529418945 1.350484371185303 0.000000000000000
15.742196083068848 -11.896229743957520 1.438613176345825 0.000000000000000
15.743078231811523 -6.881907939910889 1.418617606163025 0.000000000000000
15.744044303894043 -10.023109436035156 1.396787166595459 0.000000000000000
15.751029968261719 -13.911826133728027 2.572882413864136 0.000000000000000
15.752565383911133 -3.659360885620117 1.836850523948669 0.000000000000000
15.766566276550293 -6.551367759704590 2.530332803726196 0.000000000000000
15.769897460937500 -8.734921455383301 1.210022568702698 0.000000000000000
15.771627426147461 -16.507526397705078 3.038160085678101 0.000000000000000
15.783459663391113 -5.644770622253418 1.060480833053589 0.000000000000000
15.787587165832520 -5.551016807556152 2.048875808715820 0.000000000000000
15.788785934448242 -4.897110462188721 1.109566926956177 0.000000000000000
15.789209365844727 -5.562736511230469 1.091359496116638 0.000000000000000
15.792885780334473 -16.270833969116211 0.213713094592094 0.000000000000000
15.800865173339844 -3.931397199630737 1.547761440277100 0.000000000000000
15.801163673400879 -17.064897537231445 -1.479506969451904 1.000000000000000
15.805474281311035 -16.274705886840820 0.257381707429886 1.000000000000000
15.816306114196777 -5.699210166931152 2.237200260162354 0.000000000000000
15.818585395812988 -6.177589416503906 1.008920073509216 0.000000000000000
15.818797111511230 -12.080389976501465 2.260739088058472 0.000000000000000
15.821635246276855 -8.214823722839355 1.898879766464233 0.000000000000000
15.822038650512695 -14.689371109008789 1.532418847084045 0.000000000000000
15.824037551879883 -15.047450065612793 1.381478905677795 0.000000000000000
15.839282035827637 -4.855252742767334 1.111977815628052 0.000000000000000
15.845033645629883 -1.316342353820801 0.516332685947418 0.000000000000000
15.846735954284668 -11.611229896545410 1.971255779266357 0.000000000000000
15.849882125854492 -13.328886032104492 2.535453319549561 0.000000000000000
15.855113983154297 -11.933808326721191 2.253967761993408 0.000000000000000
15.856279373168945 -11.426657676696777 1.575951814651489 0.000000000000000
15.862864494323730 -6.293686389923096 1.310144424438477 0.000000000000000
15.867931365966797 -4.409813404083252 1.652564048767090 0.000000000000000
15.870644569396973 -3.970533132553101 2.177049160003662 0.000000000000000
15.874668121337891 -3.548989772796631 1.991516947746277 0.000000000000000
15.875000000000000 -1.542292356491089 0.763331055641174 0.000000000000000
15.875427246093750 -10.777186393737793 1.176946163177490 0.000000000000000
15.877510070800781 -3.755917787551880 1.737885832786560 0.000000000000000
15.879299163818359 -16.633001327514648 0.084284551441669 1.000000000000000
15.886604309082031 -5.604530811309814 2.062486171722412 0.000000000000000
15.891075134277344 -3.956787586212158 1.352130174636841 0.000000000000000
15.893536567687988 -6.794911384582520 1.566985607147217 0.000000000000000
15.894454956054688 -6.795304298400879 1.260313630104065 0.000000000000000
15.906541824340820 -17.324918746948242 -0.139569669961929 0.000000000000000
15.926529884338379 -10.908799171447754 1.519281983375549 0.000000000000000
15.929144859313965 -5.926527500152588 1.108013510704041 0.000000000000000
15.935107231140137 -11.445476531982422 1.778613448143005 0.000000000000000
15.935426712036133 -5.753133773803711 1.300652861595154 0.000000000000000
15.936026573181152 -13.873497962951660 1.581274151802063 0.000000000000000
15.936323165893555 -7.095973968505859 1.170911908149719 0.000000000000000
15.947682380676270 -19.135568618774414 0.330435603857040 1.000000000000000
15.952354431152344 -5.420684337615967 0.968510091304779 0.000000000000000
15.953345298767090 -17.254606246948242 -0.139450997114182 0.000000000000000
15.974031448364258 -17.027282714843750 0.982625246047974 1.000000000000000
15.974345207214355 -18.242206573486328 -1.168949246406555 1.000000000000000
15.979098320007324 -11.939979553222656 0.993035256862640 0.000000000000000
15.979254722595215 -7.048356533050537 1.172251343727112 0.000000000000000
15.979616165161133 -8.367795944213867 1.921334147453308 0.000000000000000
15.984596252441406 -11.052580833435059 1.454401969909668 0.000000000000000
15.994137763977051 -13.545788764953613 2.566077232360840 0.000000000000000
16.000644683837891 -8.935860633850098 1.230113744735718 0.000000000000000
16.003290176391602 -17.323175430297852 0.086439684033394 1.000000000000000
16.014389038085938 -6.623228073120117 1.845921277999878 0.000000000000000
16.014938354492188 -4.122664451599121 1.397376537322998 0.000000000000000
16.019172668457031 -2.446127891540527 1.337976813316345 0.000000000000000
16.020362854003906 -3.323198556900024 1.287670731544495 0.000000000000000
16.029764175415039 -17.414539337158203 0.723152041435242 0.000000000000000
16.031734466552734 -4.139521598815918 1.880638837814331 0.000000000000000
16.032257080078125 -16.923435211181641 0.757036983966827 1.000000000000000
16.033435821533203 -16.634454727172852 -0.137101098895073 0.000000000000000
16.039440155029297 -15.074686050415039 3.262165069580078 0.000000000000000
16.050310134887695 -2.615684032440186 1.374137520790100 0.000000000000000
16.058296203613281 -0.363291978836060 2.137475967407227 0.000000000000000
16.059412002563477 -10.313126564025879 1.730220794677734 0.000000000000000
16.070514678955078 -11.375189781188965 2.410527706146240 0.000000000000000
16.075557708740234 -6.237880229949951 1.124147057533264 0.000000000000000
16.076803207397461 -15.356885910034180 1.449421048164368 0.000000000000000
16.077423095703125 -5.897504806518555 2.537956237792969 0.000000000000000
16.077821731567383 -3.703582286834717 3.431771039962769 0.000000000000000
16.079935073852539 -13.913165092468262 3.634653091430664 0.000000000000000
16.082479476928711 -14.951040267944336 1.473886251449585 0.000000000000000
16.082489013671875 -9.495250701904297 1.217565774917603 0.000000000000000
16.085569381713867 -5.458436489105225 2.517432212829590 0.000000000000000
16.086601257324219 -1.712346673011780 1.117053985595703 0.000000000000000
16.088949203491211 -16.843185424804688 -0.585531294345856 1.000000000000000
16.094223022460938 -13.590566635131836 2.243745326995850 0.000000000000000
16.094644546508789 -4.383678913116455 2.219788074493408 0.000000000000000
16.098707199096680 -16.161767959594727 0.127405583858490 1.000000000000000
16.106422424316406 -7.632050514221191 1.265073776245117 0.000000000000000
16.106771469116211 -19.071943283081055 -0.483678638935089 1.000000000000000
16.109819412231445 -8.364454269409180 1.428583264350891 0.000000000000000
16.119459152221680 -6.101970195770264 2.554375648498535 0.000000000000000
16.122537612915039 -2.397448539733887 0.811452865600586 0.000000000000000
16.128156661987305 -11.394455909729004 0.907075285911560 0.000000000000000
16.145452499389648 -1.718611001968384 0.870820105075836 0.000000000000000
16.147190093994141 -17.835372924804688 0.226756796240807 0.000000000000000
16.152254104614258 -15.531722068786621 1.115548729896545 0.000000000000000
16.162080764770508 -18.215311050415039 -0.097754940390587 1.000000000000000
16.162309646606445 -4.165414810180664 1.120282173156738 0.000000000000000
16.167770385742188 -15.301934242248535 3.299108505249023 0.000000000000000
16.174291610717773 -4.116161823272705 1.345763802528381 0.000000000000000
16.174644470214844 -7.444293498992920 2.638817548751831 0.000000000000000
16.179805755615234 -5.733065605163574 1.317798972129822 0.000000000000000
16.189393997192383 -7.533420562744141 1.555946826934814 0.000000000000000
16.192361831665039 -5.010514259338379 0.941709339618683 0.000000000000000
16.195865631103516 -3.646332025527954 1.885604381561279 0.000000000000000
16.200193405151367 -11.454252243041992 1.484851360321045 0.000000000000000
16.204399108886719 -1.622556090354919 1.061694502830505 0.000000000000000
16.205127716064453 -6.301177978515625 1.133515000343323 0.000000000000000
16.206018447875977 -4.158586025238037 2.048389673233032 0.000000000000000
16.208694458007812 -18.338645935058594 -0.662275195121765 1.000000000000000
16.213174819946289 -6.600634098052979 2.143177509307861 0.000000000000000
16.223199844360352 -6.951932430267334 1.218729615211487 0.000000000000000
16.230842590332031 -4.662091255187988 2.247225522994995 0.000000000000000
16.231376647949219 -5.665389537811279 1.054500699043274 0.000000000000000
16.233676910400391 -17.655225753784180 -1.156237006187439 1.000000000000000
16.237340927124023 -12.132946014404297 2.302270412445068 0.000000000000000
16.239610671997070 -3.121670961380005 1.014338493347168 0.000000000000000
16.243894577026367 -7.100833892822266 1.189931511878967 0.000000000000000
16.249822616577148 -19.160455703735352 -1.114480137825012 1.000000000000000
16.253919601440430 -4.050146102905273 2.050820112228394 0.000000000000000
16.256784439086914 -19.096256256103516 -1.209012031555176 1.000000000000000
16.258586883544922 -18.847721099853516 -0.482283890247345 0.000000000000000
16.265752792358398 -16.287342071533203 0.261148035526276 1.000000000000000
16.268299102783203 -5.221299648284912 0.949253678321838 0.000000000000000
16.280675888061523 -4.120853900909424 0.933055579662323 0.000000000000000
16.285800933837891 -6.884081840515137 1.540668487548828 0.000000000000000
16.287704467773438 -10.933334350585938 0.863358020782471 0.000000000000000
16.287982940673828 -6.993828296661377 2.013357877731323 0.000000000000000
16.289108276367188 -18.134122848510742 0.089342512190342 1.000000000000000
16.290090560913086 -7.033154487609863 2.172343015670776 0.000000000000000
16.291204452514648 -5.533924102783203 1.420592308044434 0.000000000000000
16.292188644409180 -18.372278213500977 -0.145717382431030 0.000000000000000
16.294153213500977 -4.438018798828125 0.905738651752472 0.000000000000000
16.295089721679688 -16.254188537597656 0.437908113002777 1.000000000000000
16.297952651977539 -18.960161209106445 -1.445997238159180 1.000000000000000
16.301443099975586 -18.897401809692383 -0.867154538631439 1.000000000000000
16.320766448974609 -6.346142768859863 1.411991000175476 0.000000000000000
16.323169708251953 -17.733289718627930 -1.486820220947266 1.000000000000000
16.327133178710938 -2.276905298233032 0.788953959941864 0.000000000000000
16.331684112548828 -11.166632652282715 2.422194004058838 0.000000000000000
16.342191696166992 -6.317071437835693 2.596596479415894 0.000000000000000
16.342781066894531 -6.486407756805420 1.997106671333313 0.000000000000000
16.348556518554688 -17.858831405639648 0.088741421699524 1.000000000000000
16.357522964477539 -3.503165960311890 1.900050044059753 0.000000000000000
16.365724563598633 -2.420182228088379 1.365954160690308 0.000000000000000
16.376108169555664 -9.489842414855957 1.416489720344543 0.000000000000000
16.388792037963867 -19.409999847412109 -0.150749489665031 0.000000000000000
16.388896942138672 -3.183304071426392 1.378461718559265 0.000000000000000
16.391901016235352 -17.889871597290039 0.881239652633667 1.000000000000000
16.393562316894531 -18.336488723754883 -0.429329186677933 1.000000000000000
16.398544311523438 -6.412655353546143 1.596237778663635 0.000000000000000
16.403516769409180 -13.388394355773926 2.124611139297485 0.000000000000000
16.407676696777344 -16.431747436523438 1.917273044586182 0.000000000000000
16.407718658447266 -4.712896347045898 1.442507386207581 0.000000000000000
16.416450500488281 -16.803773880004883 0.086102485656738 1.000000000000000
16.419660568237305 -18.345691680908203 0.752224743366241 1.000000000000000
16.428279876708984 -4.503823280334473 1.709273695945740 0.000000000000000
16.431932449340820 -10.129166603088379 1.936910629272461 0.000000000000000
16.433523178100586 -17.018600463867188 1.770537376403809 0.000000000000000
16.441036224365234 -5.613320827484131 1.333720326423645 0.000000000000000
16.448249816894531 -17.243412017822266 0.682288765907288 1.000000000000000
16.450359344482422 -6.536085128784180 1.393119812011719 0.000000000000000
16.450889587402344 -19.262878417968750 0.141479849815369 1.000000000000000
16.459875106811523 -4.359952926635742 0.913236439228058 0.000000000000000
16.473106384277344 -6.823720455169678 1.093683123588562 0.000000000000000
16.476398468017578 -3.734879255294800 3.514042377471924 0.000000000000000
16.481735229492188 -19.309913635253906 0.483030587434769 1.000000000000000
16.486549377441406 -19.229753494262695 0.725217998027802 1.000000000000000
