# This PCD file was generated using the MATLAB® pcwrite function
# from Computer Vision Toolbox®.
# .PCD v.7 - Point Cloud Data file format
VERSION .7
FIELDS x y z intensity
SIZE 8 8 8 8
TYPE F F F F
COUNT 1 1 1 1
WIDTH 639
HEIGHT 1
VIEWPOINT 0 0 0 1 0 0 0
POINTS 639
DATA ascii
-2.487118005752563 -2.821875810623169 0.281506776809692 0.000000000000000
-2.484272718429565 -11.392950057983398 3.124463558197021 1.000000000000000
-2.483583927154541 -6.105933189392090 0.062127217650414 1.000000000000000
-2.482753753662109 -3.519005775451660 0.106757141649723 0.000000000000000
-2.481886386871338 -11.350596427917480 0.824691116809845 1.000000000000000
-2.480957984924316 -2.380649805068970 0.715189874172211 0.000000000000000
-2.477906227111816 -9.175886154174805 1.976954221725464 1.000000000000000
-2.475953578948975 -9.180117607116699 1.409128665924072 1.000000000000000
-2.475530624389648 -5.251014232635498 0.177367687225342 0.000000000000000
-2.475019693374634 -10.060558319091797 0.635492146015167 1.000000000000000
-2.471224069595337 -4.380173683166504 0.386093020439148 0.000000000000000
-2.470684289932251 -4.205461502075195 0.425012022256851 0.000000000000000
-2.470118761062622 -9.130586624145508 1.616824269294739 0.000000000000000
-2.468248605728149 -2.647613763809204 0.344073146581650 0.000000000000000
-2.463791608810425 -9.356813430786133 1.184605002403259 0.000000000000000
-2.463432073593140 -1.925474882125854 0.534448325634003 0.000000000000000
-2.455245494842529 -11.483008384704590 0.561981439590454 1.000000000000000
-2.452685117721558 -5.867936134338379 0.554182291030884 0.000000000000000
-2.439038753509521 -4.143311977386475 0.341261237859726 0.000000000000000
-2.437491655349731 -11.824237823486328 0.415264695882797 1.000000000000000
-2.436375379562378 -4.387930870056152 1.344823718070984 0.000000000000000
-2.435955286026001 -4.423484325408936 1.353106021881104 0.000000000000000
-2.433593511581421 -9.463134765625000 1.196271300315857 1.000000000000000
-2.433172225952148 -5.807004928588867 0.446896493434906 0.000000000000000
-2.428853511810303 -9.412688255310059 1.035444378852844 0.000000000000000
-2.426335811614990 -10.130562782287598 1.109586358070374 0.000000000000000
-2.425044536590576 -4.086840629577637 0.190866813063622 0.000000000000000
-2.424236059188843 -6.968506336212158 0.381507247686386 0.000000000000000
-2.424079895019531 -9.443903923034668 1.297470569610596 1.000000000000000
-2.423585414886475 -3.256468296051025 0.368001461029053 0.000000000000000
-2.423357963562012 -9.548287391662598 0.756264686584473 1.000000000000000
-2.421123027801514 -11.540955543518066 1.339379668235779 1.000000000000000
-2.419871330261230 -10.062467575073242 0.983769178390503 1.000000000000000
-2.419281482696533 -2.742398977279663 0.331526339054108 0.000000000000000
-2.416561126708984 -4.989782333374023 0.556312620639801 0.000000000000000
-2.413260459899902 -8.720255851745605 0.712094783782959 0.000000000000000
-2.412614107131958 -11.649047851562500 1.193696022033691 1.000000000000000
-2.412322282791138 -9.506882667541504 0.790869295597076 1.000000000000000
-2.411737203598022 -5.296482563018799 0.435544461011887 0.000000000000000
-2.408866167068481 -5.397467613220215 0.453758835792542 0.000000000000000
-2.407336950302124 -3.645100593566895 0.259524732828140 1.000000000000000
-2.405800819396973 -9.430084228515625 0.925098776817322 1.000000000000000
-2.405004739761353 -5.147929191589355 0.260999798774719 0.000000000000000
-2.404092311859131 -11.888702392578125 0.254073470830917 0.000000000000000
-2.403675556182861 -9.009627342224121 1.593909502029419 1.000000000000000
-2.400969505310059 -11.663532257080078 0.615740716457367 0.000000000000000
-2.400671720504761 -11.888873100280762 0.277359634637833 0.000000000000000
-2.399833917617798 -9.024948120117188 2.502262592315674 0.000000000000000
-2.396641254425049 -2.330795049667358 0.243744015693665 0.000000000000000
-2.396557331085205 -5.122618198394775 0.075021825730801 0.000000000000000
-2.394700765609741 -11.535181045532227 2.013785123825073 1.000000000000000
-2.391440629959106 -6.020434856414795 0.160581782460213 0.000000000000000
-2.390023231506348 -2.277420759201050 0.686680078506470 0.000000000000000
-2.389566421508789 -11.466198921203613 1.433969974517822 0.000000000000000
-2.385910749435425 -11.590378761291504 0.247874483466148 0.000000000000000
-2.381993293762207 -10.138171195983887 1.275018095970154 0.000000000000000
-2.381847143173218 -5.387379169464111 0.591057240962982 0.000000000000000
-2.380700349807739 -9.197540283203125 1.976139664649963 0.000000000000000
-2.378918409347534 -4.465818881988525 0.203227400779724 0.000000000000000
-2.375383138656616 -6.236186981201172 0.191063731908798 0.000000000000000
-2.364787101745605 -9.274728775024414 1.418511152267456 1.000000000000000
-2.360806703567505 -6.902821063995361 0.732032358646393 0.000000000000000
-2.360317945480347 -3.959628105163574 0.362794876098633 0.000000000000000
-2.360048770904541 -2.656505584716797 0.322136700153351 0.000000000000000
-2.359543800354004 -11.585109710693359 2.459177970886230 0.000000000000000
-2.356232404708862 -10.215720176696777 0.038425780832767 1.000000000000000
-2.354769468307495 -11.748188972473145 0.850462734699249 0.000000000000000
-2.352711915969849 -11.659752845764160 0.775453329086304 1.000000000000000
-2.352303981781006 -11.594047546386719 0.202367350459099 0.000000000000000
-2.349254369735718 -11.545924186706543 0.359988003969193 1.000000000000000
-2.347485780715942 -3.745406866073608 0.322277277708054 0.000000000000000
-2.342386245727539 -10.173529624938965 0.078350588679314 1.000000000000000
-2.339790821075439 -11.673458099365234 0.661459803581238 1.000000000000000
-2.336618661880493 -6.757667541503906 0.287183105945587 0.000000000000000
-2.334797620773315 -10.040341377258301 1.034350156784058 1.000000000000000
-2.330454826354980 -5.034102916717529 0.084239616990089 0.000000000000000
-2.329688310623169 -11.691871643066406 0.387152135372162 1.000000000000000
-2.323228120803833 -2.632035017013550 0.305911421775818 0.000000000000000
-2.321324110031128 8.011962890625000 1.735027909278870 1.000000000000000
-2.320343494415283 -5.245048999786377 0.230356499552727 0.000000000000000
-2.315760374069214 -6.927508831024170 0.636476278305054 0.000000000000000
-2.313698291778564 -10.052145957946777 1.262865781784058 0.000000000000000
-2.312319278717041 -9.349947929382324 0.966458439826965 1.000000000000000
-2.311821937561035 -9.246085166931152 1.082518458366394 1.000000000000000
-2.307582139968872 -3.268300294876099 0.348620951175690 1.000000000000000
-2.300021648406982 -5.296260356903076 0.503139257431030 0.000000000000000
-2.296309947967529 -4.987033843994141 0.136098012328148 0.000000000000000
-2.293444156646729 -9.310568809509277 0.773187279701233 0.000000000000000
-2.289280176162720 -6.580573558807373 0.253047883510590 0.000000000000000
-2.287047863006592 -11.533528327941895 0.993555188179016 0.000000000000000
-2.285778522491455 -10.212588310241699 0.239317551255226 0.000000000000000
-2.284166097640991 -5.390047550201416 0.404222548007965 0.000000000000000
-2.283419132232666 -2.963796615600586 0.222280308604240 0.000000000000000
-2.282083034515381 -11.508491516113281 1.561291337013245 0.000000000000000
-2.274785280227661 -8.670346260070801 2.401840925216675 1.000000000000000
-2.273372411727905 -4.736196041107178 0.160510435700417 0.000000000000000
-2.271671295166016 -4.118863105773926 0.804031372070312 0.000000000000000
-2.267967462539673 -10.106527328491211 0.356275111436844 1.000000000000000
-2.266876935958862 -10.996587753295898 1.275277137756348 1.000000000000000
-2.264616966247559 -11.332273483276367 3.096511125564575 0.000000000000000
-2.263315916061401 -5.420991897583008 0.589459776878357 0.000000000000000
-2.262110233306885 -11.970734596252441 0.184999197721481 0.000000000000000
-2.260845422744751 -5.910043239593506 0.059639111161232 1.000000000000000
-2.260393619537354 -10.213690757751465 1.114246606826782 0.000000000000000
-2.258720874786377 -3.785884618759155 1.181250095367432 0.000000000000000
-2.249464511871338 -11.055484771728516 3.023006439208984 0.000000000000000
-2.247300148010254 -9.428804397583008 0.669295489788055 0.000000000000000
-2.247282743453979 -10.574453353881836 0.538184165954590 1.000000000000000
-2.246499061584473 -11.030071258544922 0.842430651187897 1.000000000000000
-2.244480848312378 -11.115366935729980 0.433645755052567 0.000000000000000
-2.243260622024536 -11.790885925292969 1.469454646110535 1.000000000000000
-2.241793155670166 -11.017782211303711 1.128200411796570 1.000000000000000
-2.241465330123901 -10.740530967712402 0.040214389562607 1.000000000000000
-2.240222215652466 -11.078331947326660 0.758641541004181 0.000000000000000
-2.239726781845093 -9.172424316406250 1.963921070098877 1.000000000000000
-2.239228963851929 -11.073420524597168 0.932798624038696 0.000000000000000
-2.239156961441040 -10.337296485900879 0.384144991636276 0.000000000000000
-2.238772869110107 -10.701472282409668 0.250016897916794 0.000000000000000
-2.238142728805542 -11.940962791442871 1.616693735122681 1.000000000000000
-2.233335256576538 -9.286800384521484 1.986729145050049 0.000000000000000
-2.231961965560913 -5.610383510589600 0.894852399826050 0.000000000000000
-2.231077671051025 -4.996055603027344 0.219761714339256 0.000000000000000
-2.227381706237793 -6.720024585723877 0.080318339169025 0.000000000000000
-2.224172592163086 -2.468634605407715 0.088752016425133 0.000000000000000
-2.220217227935791 -4.928471088409424 0.165152296423912 0.000000000000000
-2.217083215713501 -2.262904882431030 0.276049464941025 0.000000000000000
-2.215264081954956 -5.625503540039062 0.896025240421295 0.000000000000000
-2.212876558303833 -2.473402976989746 0.088645212352276 0.000000000000000
-2.212270975112915 -11.960811614990234 0.769536793231964 0.000000000000000
-2.210711479187012 -5.967365741729736 1.087767481803894 0.000000000000000
-2.207140207290649 -10.341172218322754 0.201186627149582 1.000000000000000
-2.202988386154175 -9.043197631835938 2.493980407714844 1.000000000000000
-2.202610015869141 -11.425104141235352 0.691275119781494 1.000000000000000
-2.202031135559082 -3.876433134078979 0.350869089365005 0.000000000000000
-2.196850061416626 -10.246520042419434 1.051522731781006 1.000000000000000
-2.194711685180664 7.990723609924316 1.723623991012573 1.000000000000000
-2.193321704864502 -3.834719896316528 0.356212675571442 0.000000000000000
-2.191211462020874 -10.954004287719727 0.148186683654785 0.000000000000000
-2.190176010131836 -4.948474884033203 0.471541076898575 0.000000000000000
-2.190085172653198 -5.209752082824707 0.433857113122940 0.000000000000000
-2.187353372573853 -12.061358451843262 0.964733123779297 0.000000000000000
-2.184636116027832 7.981303691864014 1.721180200576782 0.000000000000000
-2.182353496551514 -9.047016143798828 1.139398455619812 1.000000000000000
-2.178406476974487 -10.547867774963379 0.681394934654236 1.000000000000000
-2.177304029464722 -9.363069534301758 2.575767278671265 1.000000000000000
-2.174323797225952 -10.752451896667480 1.343070864677429 1.000000000000000
-2.171868324279785 -9.466175079345703 2.020126342773438 1.000000000000000
-2.170552253723145 -9.350312232971191 0.311721086502075 0.000000000000000
-2.162026882171631 -5.535605430603027 0.330175161361694 0.000000000000000
-2.160643100738525 -10.669455528259277 0.207121804356575 0.000000000000000
-2.157748460769653 -3.288859844207764 0.226115763187408 0.000000000000000
-2.157151699066162 -4.840722560882568 0.417088598012924 0.000000000000000
-2.154663801193237 -4.738712310791016 0.159044593572617 0.000000000000000
-2.148023843765259 -4.664991855621338 0.048404943197966 0.000000000000000
-2.145126819610596 -4.023886680603027 0.270911544561386 0.000000000000000
-2.144096374511719 -10.328029632568359 0.281742244958878 1.000000000000000
-2.141139030456543 -4.016406536102295 0.432646423578262 0.000000000000000
-2.140403270721436 -3.849022865295410 0.752810597419739 0.000000000000000
-2.139899253845215 -10.032129287719727 0.787495017051697 1.000000000000000
-2.137378215789795 -10.504611968994141 0.657532334327698 1.000000000000000
-2.134286880493164 -11.154478073120117 0.587236106395721 0.000000000000000
-2.134205818176270 -4.974919319152832 0.576612055301666 0.000000000000000
-2.133873462677002 -3.551502704620361 0.198290154337883 0.000000000000000
-2.129764795303345 -11.103544235229492 0.215111434459686 0.000000000000000
-2.129071474075317 -9.043260574340820 0.319561302661896 1.000000000000000
-2.129046201705933 -5.896857261657715 0.179501459002495 1.000000000000000
-2.127608299255371 -10.536578178405762 1.430436253547668 1.000000000000000
-2.127163171768188 -9.445889472961426 2.594402074813843 1.000000000000000
-2.121410131454468 -10.271891593933105 1.117212295532227 1.000000000000000
-2.120336294174194 -10.485473632812500 0.553154528141022 1.000000000000000
-2.119172573089600 -12.486884117126465 1.550631880760193 0.000000000000000
-2.117176532745361 -11.392191886901855 0.131458878517151 1.000000000000000
-2.115476846694946 -12.186432838439941 0.425440043210983 1.000000000000000
-2.114862203598022 -10.273668289184570 0.380951046943665 0.000000000000000
-2.114298105239868 -4.951155662536621 0.299110293388367 0.000000000000000
-2.113742351531982 -10.509499549865723 1.312447071075439 1.000000000000000
-2.107896089553833 -10.489901542663574 0.883426725864410 0.000000000000000
-2.107733488082886 -10.075097084045410 0.552055001258850 1.000000000000000
-2.102885007858276 -3.561315298080444 0.317508697509766 0.000000000000000
-2.102423429489136 -10.551309585571289 0.846730649471283 0.000000000000000
-2.102288246154785 -10.035085678100586 0.688188612461090 0.000000000000000
-2.101647377014160 -4.590819358825684 0.173668637871742 0.000000000000000
-2.089140653610229 -10.077455520629883 2.140682220458984 1.000000000000000
-2.085925817489624 -10.427675247192383 0.795861184597015 1.000000000000000
-2.082060813903809 -4.337629795074463 0.073064357042313 0.000000000000000
-2.078918933868408 -10.066147804260254 0.333792150020599 0.000000000000000
-2.077972650527954 -10.822294235229492 0.019233519211411 1.000000000000000
-2.076926231384277 -3.660810470581055 0.478059649467468 0.000000000000000
-2.076558828353882 -4.646121501922607 0.483746439218521 0.000000000000000
-2.069838285446167 -4.588027477264404 0.478447169065475 0.000000000000000
-2.059780120849609 -12.607305526733398 0.808177769184113 1.000000000000000
-2.059244632720947 -10.168741226196289 0.516505658626556 1.000000000000000
-2.056610107421875 -4.346079349517822 0.193114191293716 0.000000000000000
-2.054982662200928 -10.313221931457520 0.503278434276581 1.000000000000000
-2.053517103195190 -11.078709602355957 1.130596637725830 1.000000000000000
-2.051944732666016 -11.969151496887207 0.885389924049377 1.000000000000000
-2.050402641296387 -6.491982460021973 0.617187917232513 0.000000000000000
-2.048589229583740 -3.007853984832764 0.622062802314758 0.000000000000000
-2.040544748306274 -3.108324289321899 0.206581383943558 0.000000000000000
-2.039658308029175 -10.676067352294922 0.248553737998009 0.000000000000000
-2.038269042968750 -12.099770545959473 1.013110160827637 0.000000000000000
-2.035244941711426 -10.050227165222168 0.668503165245056 1.000000000000000
-2.033387660980225 -6.523644447326660 0.649537444114685 0.000000000000000
-2.030426263809204 -5.093437194824219 0.477791279554367 0.000000000000000
-2.028124094009399 -10.776836395263672 0.208643630146980 1.000000000000000
-2.028118610382080 -2.367584943771362 0.125211194157600 1.000000000000000
-2.024931907653809 -2.822353839874268 0.593756616115570 0.000000000000000
-2.021984577178955 -9.790471076965332 0.786787927150726 1.000000000000000
-2.020875453948975 -10.577753067016602 1.433074474334717 0.000000000000000
-2.017953395843506 -3.078827619552612 0.765693068504333 0.000000000000000
-2.012321233749390 -10.517045974731445 0.059804443269968 1.000000000000000
-2.009391546249390 -3.477283954620361 0.176751837134361 0.000000000000000
-2.008153200149536 -10.112271308898926 0.215958237648010 0.000000000000000
-2.000880479812622 -2.708184719085693 0.575559735298157 0.000000000000000
-1.999026536941528 -3.711975097656250 0.367371499538422 0.000000000000000
-1.996641993522644 -11.501872062683105 0.222111880779266 1.000000000000000
-1.994184255599976 -12.389180183410645 0.697184443473816 0.000000000000000
-1.992036938667297 -8.703973770141602 2.392523288726807 1.000000000000000
-1.983907103538513 -9.051952362060547 1.134537577629089 1.000000000000000
-1.978456020355225 -12.579568862915039 0.928437829017639 1.000000000000000
-1.977902650833130 -9.959941864013672 0.525062978267670 1.000000000000000
-1.976913452148438 -9.262484550476074 1.075747132301331 0.000000000000000
-1.972640752792358 -2.578987598419189 0.242997363209724 0.000000000000000
-1.967588305473328 -8.711025238037109 1.526513814926147 0.000000000000000
-1.965631961822510 -2.953815460205078 0.737997770309448 0.000000000000000
-1.964364886283875 -11.616492271423340 0.586513340473175 0.000000000000000
-1.961627125740051 -8.975759506225586 0.669859766960144 1.000000000000000
-1.960876703262329 -8.489432334899902 0.736241281032562 1.000000000000000
-1.952585220336914 -2.516169548034668 0.140170365571976 0.000000000000000
-1.937154650688171 -4.300124645233154 0.473245143890381 0.000000000000000
-1.932725906372070 -3.099264383316040 0.414860069751740 0.000000000000000
-1.927832007408142 -11.366662025451660 0.263642549514771 0.000000000000000
-1.927677273750305 -9.051916122436523 1.133079290390015 1.000000000000000
-1.924364566802979 -9.361501693725586 0.659927070140839 0.000000000000000
-1.923107981681824 -8.518250465393066 0.830090701580048 1.000000000000000
-1.921136856079102 -4.478247165679932 0.383508086204529 0.000000000000000
-1.919705867767334 -10.967770576477051 1.903256177902222 1.000000000000000
-1.916232705116272 -6.389569759368896 0.581266403198242 0.000000000000000
-1.915794610977173 -5.227240562438965 0.951628088951111 0.000000000000000
-1.912148475646973 -11.274189949035645 1.521718263626099 0.000000000000000
-1.911770820617676 -8.981843948364258 1.222017884254456 1.000000000000000
-1.911492466926575 -8.606545448303223 0.838039517402649 0.000000000000000
-1.909552931785583 -8.820104598999023 1.200912117958069 1.000000000000000
-1.908889770507812 -11.490844726562500 0.423053085803986 0.000000000000000
-1.907846570014954 -3.579994201660156 0.353482186794281 0.000000000000000
-1.907223224639893 -11.935201644897461 0.951238155364990 1.000000000000000
-1.904235482215881 -12.047363281250000 1.493273138999939 1.000000000000000
-1.901834368705750 -8.784453392028809 0.759480357170105 1.000000000000000
-1.899870395660400 -11.319197654724121 1.961890578269958 0.000000000000000
-1.899069070816040 -10.964764595031738 0.596827745437622 1.000000000000000
-1.897793412208557 -11.306822776794434 1.039360284805298 1.000000000000000
-1.897637724876404 -11.181525230407715 0.936419188976288 0.000000000000000
-1.892184138298035 -11.220611572265625 1.393138289451599 1.000000000000000
-1.890426397323608 -11.436486244201660 0.086996175348759 1.000000000000000
-1.890402078628540 -8.288494110107422 0.965599298477173 0.000000000000000
-1.890163302421570 -11.144563674926758 0.955160260200500 1.000000000000000
-1.887535572052002 -11.342699050903320 0.927181720733643 1.000000000000000
-1.884443283081055 -11.573465347290039 0.223101064562798 1.000000000000000
-1.883974432945251 -3.461057901382446 0.241707414388657 0.000000000000000
-1.882810950279236 -9.467263221740723 0.778331100940704 1.000000000000000
-1.878819108009338 -2.910669088363647 0.329310953617096 0.000000000000000
-1.875985741615295 -11.549487113952637 1.557070255279541 0.000000000000000
-1.872165441513062 -9.488151550292969 0.798507213592529 0.000000000000000
-1.870236754417419 -3.757353067398071 0.398958295583725 0.000000000000000
-1.866365432739258 -3.862827301025391 0.345924973487854 0.000000000000000
-1.865679979324341 -10.925012588500977 0.679817378520966 0.000000000000000
-1.857184529304504 -8.247021675109863 0.848246991634369 1.000000000000000
-1.852213382720947 -9.010506629943848 1.224128484725952 0.000000000000000
-1.851312279701233 -11.633531570434570 0.972625255584717 1.000000000000000
-1.849721670150757 -4.515923500061035 0.196003690361977 0.000000000000000
-1.847148895263672 -4.059956073760986 0.179148331284523 0.000000000000000
-1.846833109855652 -4.257378101348877 0.465657234191895 0.000000000000000
-1.845000386238098 -2.534027338027954 0.535796225070953 1.000000000000000
-1.844509363174438 -11.459300994873047 0.823841512203217 0.000000000000000
-1.842026829719543 -10.020655632019043 0.389623880386353 1.000000000000000
-1.841360330581665 -2.921316623687744 0.138695478439331 0.000000000000000
-1.840811610221863 -11.976632118225098 0.509982824325562 1.000000000000000
-1.832660794258118 -11.508562088012695 0.580148994922638 0.000000000000000
-1.831755518913269 -9.549870491027832 0.484087288379669 1.000000000000000
-1.829243779182434 -2.566968202590942 0.274660527706146 0.000000000000000
-1.827795743942261 -9.315496444702148 2.543673515319824 0.000000000000000
-1.824224352836609 -11.455583572387695 0.042516127228737 1.000000000000000
-1.821753621101379 -9.680246353149414 0.338811993598938 1.000000000000000
-1.818568468093872 -8.846833229064941 0.763185143470764 0.000000000000000
-1.818059325218201 -10.831776618957520 0.124606862664223 1.000000000000000
-1.817930579185486 -4.425092220306396 0.339561998844147 0.000000000000000
-1.817729234695435 -4.545107841491699 0.093136332929134 0.000000000000000
-1.813702344894409 -3.674266338348389 0.389495372772217 0.000000000000000
-1.812132477760315 -8.974243164062500 0.773625910282135 0.000000000000000
-1.811699032783508 -8.130398750305176 1.019819974899292 1.000000000000000
-1.811330914497375 -3.740086317062378 0.190885946154594 0.000000000000000
-1.810806035995483 -12.038761138916016 0.488965809345245 0.000000000000000
-1.810696005821228 -4.527521610260010 0.393184214830399 0.000000000000000
-1.810579299926758 -11.398074150085449 0.263916879892349 0.000000000000000
-1.810277223587036 -2.826085805892944 0.698083996772766 0.000000000000000
-1.808558702468872 -10.019436836242676 0.840637862682343 0.000000000000000
-1.805451393127441 -9.450171470642090 0.664335668087006 1.000000000000000
-1.802509307861328 -11.460850715637207 0.488285005092621 0.000000000000000
-1.802454948425293 -11.537903785705566 0.379232555627823 0.000000000000000
-1.801758170127869 -8.112463951110840 1.728511452674866 0.000000000000000
-1.796976566314697 -2.526349544525146 0.270146518945694 0.000000000000000
-1.794569492340088 -4.421261787414551 0.283484488725662 0.000000000000000
-1.793933391571045 -12.409146308898926 0.865758121013641 0.000000000000000
-1.791817188262939 -9.910856246948242 0.501390337944031 1.000000000000000
-1.787727832794189 -8.120241165161133 1.106464385986328 1.000000000000000
-1.786283969879150 -9.802058219909668 1.703090786933899 1.000000000000000
-1.782625794410706 -12.441319465637207 0.892093718051910 0.000000000000000
-1.778402924537659 -2.655444383621216 0.320688486099243 0.000000000000000
-1.772387623786926 -11.345435142517090 1.223129272460938 0.000000000000000
-1.769209027290344 -11.934934616088867 0.252733141183853 1.000000000000000
-1.769150376319885 -12.861682891845703 0.871419906616211 0.000000000000000
-1.768872737884521 -4.236723423004150 0.210892245173454 0.000000000000000
-1.761543869972229 -11.402585983276367 1.412581920623779 0.000000000000000
-1.759782552719116 -11.528491973876953 1.242194414138794 1.000000000000000
-1.752867937088013 -3.880728960037231 0.727874159812927 0.000000000000000
-1.748152494430542 -6.002319335937500 0.504098832607269 0.000000000000000
-1.746102929115295 -12.250367164611816 0.735161900520325 0.000000000000000
-1.744888186454773 -2.625175476074219 0.316295504570007 0.000000000000000
-1.742037534713745 -12.145956993103027 1.013110160827637 1.000000000000000
-1.739377856254578 -8.589208602905273 0.706638514995575 1.000000000000000
-1.726051330566406 -11.592184066772461 0.020455248653889 0.000000000000000
-1.721274137496948 -12.207311630249023 1.041717410087585 1.000000000000000
-1.719382762908936 -11.830745697021484 0.940881550312042 0.000000000000000
-1.716762542724609 -9.159289360046387 0.787434637546539 0.000000000000000
-1.716416239738464 -9.887601852416992 1.139849543571472 1.000000000000000
-1.714285254478455 -2.575912714004517 0.458567887544632 0.000000000000000
-1.701867461204529 -9.826170921325684 0.842669546604156 1.000000000000000
-1.698403835296631 -11.540596961975098 1.428136944770813 1.000000000000000
-1.697144150733948 -4.152715206146240 0.353065937757492 1.000000000000000
-1.696307063102722 -3.400185346603394 0.035813625901937 0.000000000000000
-1.694357991218567 -7.895408153533936 1.679637193679810 1.000000000000000
-1.694138407707214 -2.541790723800659 0.452703833580017 0.000000000000000
-1.693225383758545 -11.910634040832520 0.367561578750610 1.000000000000000
-1.688274502754211 -4.179048061370850 0.085755430161953 0.000000000000000
-1.685375094413757 -5.786771297454834 0.392931044101715 0.000000000000000
-1.681727170944214 -2.932780265808105 0.905866742134094 0.000000000000000
-1.670605421066284 -12.145263671875000 0.633917570114136 0.000000000000000
-1.669613599777222 -2.816202402114868 0.680978059768677 0.000000000000000
-1.662993073463440 -9.549181938171387 0.463888078927994 0.000000000000000
-1.661883592605591 -5.837570190429688 0.609028577804565 0.000000000000000
-1.661265373229980 -11.970562934875488 0.741285085678101 0.000000000000000
-1.660462260246277 -8.454077720642090 1.792047500610352 1.000000000000000
-1.650602817535400 -3.673101425170898 0.324706494808197 0.000000000000000
-1.648342847824097 -11.341934204101562 0.725086987018585 0.000000000000000
-1.647740960121155 -8.828493118286133 1.099539041519165 1.000000000000000
-1.645877122879028 -11.925403594970703 0.784821152687073 0.000000000000000
-1.640902280807495 -4.037415504455566 0.395086944103241 0.000000000000000
-1.637793064117432 -11.404973030090332 1.410637617111206 0.000000000000000
-1.636510968208313 -12.310975074768066 1.520494341850281 0.000000000000000
-1.632938385009766 -3.248431682586670 0.041248232126236 0.000000000000000
-1.631968498229980 -13.957462310791016 1.105959534645081 0.000000000000000
-1.620646953582764 -3.574189662933350 0.301281154155731 0.000000000000000
-1.611460089683533 -12.220475196838379 0.732315182685852 0.000000000000000
-1.607036352157593 -8.504185676574707 2.319018602371216 1.000000000000000
-1.604070067405701 -2.622533798217773 0.639435112476349 0.000000000000000
-1.602477550506592 -3.532970190048218 0.312811315059662 0.000000000000000
-1.602387785911560 -12.109277725219727 2.087920427322388 1.000000000000000
-1.601461768150330 -8.452853202819824 1.470575451850891 1.000000000000000
-1.600514650344849 -9.159209251403809 0.695856094360352 1.000000000000000
-1.599891781806946 -11.575801849365234 0.379492193460464 0.000000000000000
-1.599843263626099 -11.630824089050293 1.437372684478760 1.000000000000000
-1.598664999008179 -8.856623649597168 0.604073703289032 1.000000000000000
-1.593769192695618 -9.151686668395996 0.587696790695190 0.000000000000000
-1.587544202804565 -8.908819198608398 1.341105818748474 1.000000000000000
-1.586860775947571 -8.791228294372559 1.093705892562866 1.000000000000000
-1.586448192596436 -12.319334030151367 1.126033782958984 1.000000000000000
-1.586430430412292 -11.431324958801270 3.092370271682739 1.000000000000000
-1.585815787315369 -8.964329719543457 0.611038625240326 0.000000000000000
-1.583436965942383 -13.585558891296387 0.260233849287033 0.000000000000000
-1.582784771919250 -11.452026367187500 0.731400907039642 0.000000000000000
-1.579941630363464 -11.800272941589355 1.006016850471497 1.000000000000000
-1.579486250877380 -9.197843551635742 0.374830961227417 1.000000000000000
-1.578644990921021 -11.617882728576660 0.673985660076141 1.000000000000000
-1.575507044792175 -2.816267728805542 0.079993516206741 0.000000000000000
-1.574788093566895 -8.887524604797363 1.025187373161316 1.000000000000000
-1.574424982070923 -12.919583320617676 0.147658690810204 0.000000000000000
-1.564930677413940 -13.011859893798828 0.249352738261223 0.000000000000000
-1.555132269859314 -12.418199539184570 0.141986489295959 1.000000000000000
-1.551307797431946 -9.495097160339355 0.460446208715439 0.000000000000000
-1.546217679977417 -9.308690071105957 0.724421977996826 1.000000000000000
-1.545903563499451 -9.258803367614746 0.738770902156830 1.000000000000000
-1.544286012649536 -9.401579856872559 0.400989145040512 1.000000000000000
-1.538632869720459 -11.359066009521484 1.698812127113342 1.000000000000000
-1.531428575515747 -12.774682044982910 1.087185144424438 0.000000000000000
-1.525699973106384 -13.005303382873535 0.198846802115440 0.000000000000000
-1.521314859390259 -3.226963043212891 0.054175730794668 0.000000000000000
-1.517552256584167 -10.919613838195801 0.654979646205902 1.000000000000000
-1.514389514923096 -8.340596199035645 2.271395921707153 1.000000000000000
-1.488404989242554 -12.781844139099121 1.062481999397278 0.000000000000000
-1.486373901367188 -11.388410568237305 0.262636631727219 0.000000000000000
-1.485022902488708 -8.706955909729004 0.695147693157196 1.000000000000000
-1.478135347366333 -9.519595146179199 0.814041674137115 1.000000000000000
-1.477002620697021 -12.565549850463867 1.102461695671082 1.000000000000000
-1.476257205009460 -12.254725456237793 0.780901849269867 0.000000000000000
-1.461318492889404 -9.559804916381836 2.591296195983887 1.000000000000000
-1.460420250892639 -11.739992141723633 0.361453860998154 1.000000000000000
-1.460266470909119 -11.339488983154297 0.657227873802185 0.000000000000000
-1.458690404891968 -12.708101272583008 1.159619927406311 0.000000000000000
-1.457937955856323 -11.072652816772461 0.513005912303925 1.000000000000000
-1.450878500938416 -9.504834175109863 0.312240421772003 1.000000000000000
-1.450682520866394 -3.531160116195679 0.332648277282715 0.000000000000000
-1.439507603645325 -3.161342382431030 0.722520947456360 0.000000000000000
-1.435715436935425 -13.023305892944336 1.314702987670898 1.000000000000000
-1.430187582969666 -12.270710945129395 0.805378496646881 0.000000000000000
-1.423097014427185 -9.557538032531738 0.313798367977142 1.000000000000000
-1.420405030250549 -8.729292869567871 0.593626320362091 1.000000000000000
-1.417422294616699 -8.845308303833008 1.327618598937988 1.000000000000000
-1.412938117980957 -8.423512458801270 1.776570677757263 1.000000000000000
-1.399805545806885 -11.203241348266602 2.348396778106689 1.000000000000000
-1.399784803390503 -8.556407928466797 2.323159933090210 0.000000000000000
-1.398855328559875 -8.612038612365723 0.737251698970795 1.000000000000000
-1.397868990898132 -8.914391517639160 0.857722520828247 1.000000000000000
-1.394619822502136 -3.623276948928833 0.111158117651939 0.000000000000000
-1.388967156410217 -8.728183746337891 1.082039713859558 1.000000000000000
-1.385955691337585 -9.499218940734863 0.963263571262360 1.000000000000000
-1.385285258293152 -12.150949478149414 1.065655112266541 1.000000000000000
-1.382072210311890 -11.670091629028320 1.741619586944580 1.000000000000000
-1.381009578704834 -8.894078254699707 1.197746396064758 1.000000000000000
-1.376012921333313 -12.987220764160156 0.047867294400930 1.000000000000000
-1.367992281913757 -11.551202774047852 1.013570308685303 1.000000000000000
-1.366005063056946 -10.981008529663086 2.965031147003174 0.000000000000000
-1.360752463340759 -8.504014015197754 2.307630777359009 0.000000000000000
-1.349814772605896 -13.013030052185059 0.173547670245171 0.000000000000000
-1.343578338623047 -10.819222450256348 1.161273837089539 1.000000000000000
-1.341239929199219 -11.867657661437988 1.356533765792847 1.000000000000000
-1.340779304504395 -11.573863983154297 0.759579956531525 1.000000000000000
-1.338927388191223 -13.086082458496094 0.882938802242279 0.000000000000000
-1.334598183631897 -11.996493339538574 1.094253540039062 0.000000000000000
-1.333569645881653 -11.270644187927246 0.652407109737396 1.000000000000000
-1.331549882888794 -11.424420356750488 0.572591364383698 1.000000000000000
-1.324813842773438 -9.080158233642578 2.458781003952026 1.000000000000000
-1.321555376052856 -11.559679985046387 2.420078754425049 0.000000000000000
-1.319359064102173 -11.540468215942383 1.104137897491455 1.000000000000000
-1.315865635871887 -11.300143241882324 0.413180917501450 0.000000000000000
-1.314033269882202 -11.961698532104492 0.390787392854691 1.000000000000000
-1.313104867935181 -13.176554679870605 0.404574275016785 0.000000000000000
-1.312155127525330 -11.295730590820312 0.434868574142456 0.000000000000000
-1.311345815658569 -11.251072883605957 0.913357555866241 1.000000000000000
-1.308327794075012 -11.057312011718750 0.811801373958588 0.000000000000000
-1.306030631065369 -13.105566978454590 0.200000762939453 0.000000000000000
-1.300236463546753 -11.876217842102051 1.356985092163086 0.000000000000000
-1.298419833183289 -11.433339118957520 0.550699770450592 0.000000000000000
-1.298148751258850 -11.430951118469238 0.905418097972870 0.000000000000000
-1.292142510414124 -11.813710212707520 0.431618690490723 0.000000000000000
-1.289226293563843 -9.227065086364746 0.811828494071960 0.000000000000000
-1.288051009178162 -11.266616821289062 0.673720479011536 0.000000000000000
-1.286699771881104 -10.968029022216797 0.677368462085724 1.000000000000000
-1.286499261856079 -3.134005069732666 0.038434822112322 0.000000000000000
-1.274539709091187 -11.602187156677246 0.020371474325657 1.000000000000000
-1.272354364395142 -11.582293510437012 0.917029976844788 0.000000000000000
-1.261152029037476 -10.830284118652344 0.731853365898132 1.000000000000000
-1.259943366050720 -11.801287651062012 0.294201672077179 1.000000000000000
-1.258024215698242 -11.141810417175293 0.407228529453278 0.000000000000000
-1.249526143074036 -12.110025405883789 0.371959120035172 0.000000000000000
-1.249115705490112 -2.898186922073364 0.023685293272138 0.000000000000000
-1.246637344360352 -11.777907371520996 0.977891564369202 1.000000000000000
-1.244056940078735 -3.399178743362427 0.048016089946032 0.000000000000000
-1.243259191513062 -11.673966407775879 0.020490156486630 0.000000000000000
-1.235613346099854 -10.880290985107422 0.355603545904160 0.000000000000000
-1.233897805213928 -10.844938278198242 0.333480566740036 1.000000000000000
-1.226948738098145 -11.580307960510254 1.322676777839661 1.000000000000000
-1.223123908042908 -9.289301872253418 2.510545015335083 0.000000000000000
-1.218388199806213 -12.104065895080566 0.512001216411591 0.000000000000000
-1.217948913574219 -3.026995897293091 0.087149992585182 0.000000000000000
-1.198328971862793 -10.908437728881836 0.694275200366974 1.000000000000000
-1.196505188941956 -12.376373291015625 0.738720238208771 1.000000000000000
-1.196157455444336 -12.003027915954590 3.232132434844971 0.000000000000000
-1.180871486663818 -9.216867446899414 2.489839315414429 1.000000000000000
-1.173118352890015 -11.392864227294922 0.724581897258759 0.000000000000000
-1.169588208198547 -10.904491424560547 0.145480796694756 1.000000000000000
-1.167428016662598 -11.205150604248047 1.021303296089172 1.000000000000000
-1.166041374206543 -12.456089973449707 2.138467311859131 0.000000000000000
-1.157243132591248 -12.133845329284668 0.606799662113190 1.000000000000000
-1.157196879386902 -11.913333892822266 0.503759443759918 1.000000000000000
-1.148043870925903 -10.703626632690430 0.639559984207153 0.000000000000000
-1.142259240150452 -8.936527252197266 0.223327621817589 0.000000000000000
-1.140750885009766 -11.471402168273926 0.020120145753026 1.000000000000000
-1.133100867271423 -11.813084602355957 0.933977127075195 0.000000000000000
-1.112918376922607 -12.391834259033203 2.587879419326782 0.000000000000000
-1.109298825263977 -11.631142616271973 0.042824003845453 1.000000000000000
-1.107315778732300 -11.135178565979004 0.363393306732178 0.000000000000000
-1.105151772499084 -9.144530296325684 2.468098402023315 1.000000000000000
-1.096874833106995 -8.832632064819336 0.700482845306396 0.000000000000000
-1.096366286277771 -11.624333381652832 0.042794682085514 1.000000000000000
-1.089575409889221 -11.359312057495117 1.215503334999084 0.000000000000000
-1.085535049438477 -10.976457595825195 0.209861099720001 0.000000000000000
-1.080159544944763 -11.641563415527344 3.132745981216431 0.000000000000000
-1.077718377113342 -11.204832077026367 0.279035627841949 1.000000000000000
-1.077059864997864 -11.305640220642090 0.587236106395721 1.000000000000000
-1.071132779121399 -11.390817642211914 0.944647848606110 1.000000000000000
-1.063731551170349 -11.916538238525391 1.200485110282898 1.000000000000000
-1.061975598335266 -10.738234519958496 1.225620388984680 1.000000000000000
-1.052583932876587 -12.158169746398926 0.325958043336868 0.000000000000000
-1.043660521507263 -11.148773193359375 0.643683850765228 1.000000000000000
-1.042822360992432 -12.673262596130371 0.315216064453125 0.000000000000000
-1.034499049186707 -11.105205535888672 2.319886922836304 0.000000000000000
-1.032764792442322 -12.123764991760254 0.769789338111877 0.000000000000000
-1.029305458068848 -11.161233901977539 1.193896174430847 1.000000000000000
-1.024552941322327 -11.133071899414062 1.269860029220581 1.000000000000000
-1.021589398384094 -11.339385986328125 1.032137513160706 1.000000000000000
-1.016843080520630 -11.391266822814941 3.064417600631714 0.000000000000000
-1.005679845809937 -11.162794113159180 0.299364507198334 1.000000000000000
-1.004887700080872 -12.160315513610840 1.063224434852600 1.000000000000000
-0.995421409606934 -11.630180358886719 0.513723552227020 1.000000000000000
-0.993416070938110 -10.706674575805664 0.493917375802994 1.000000000000000
-0.990087509155273 -10.989723205566406 0.464400589466095 1.000000000000000
-0.988749504089355 -12.179976463317871 0.938135623931885 0.000000000000000
-0.984741926193237 -11.560017585754395 0.376765787601471 1.000000000000000
-0.982492923736572 -10.854539871215820 0.899884104728699 1.000000000000000
-0.978566169738770 -11.821682929992676 2.467323541641235 0.000000000000000
-0.976799488067627 -11.960296630859375 1.278206110000610 0.000000000000000
-0.975947618484497 -12.806286811828613 0.343046307563782 1.000000000000000
-0.968204259872437 -11.453326225280762 1.407235026359558 1.000000000000000
-0.965901017189026 -12.142861366271973 0.512674033641815 1.000000000000000
-0.964097559452057 -11.935708045959473 0.780657708644867 1.000000000000000
-0.959206759929657 -12.810875892639160 0.367817729711533 0.000000000000000
-0.958631575107574 -11.302486419677734 1.288368463516235 1.000000000000000
-0.954583644866943 -12.601415634155273 2.628607988357544 0.000000000000000
-0.949363112449646 -11.071569442749023 1.115021467208862 0.000000000000000
-0.947768628597260 -9.185483932495117 2.474310159683228 0.000000000000000
-0.937388479709625 -11.004129409790039 0.019275406375527 1.000000000000000
-0.934845030307770 -11.368313789367676 0.173216581344604 1.000000000000000
-0.934829235076904 -10.833214759826660 0.478549033403397 0.000000000000000
-0.933081269264221 -11.093194961547852 0.725751399993896 1.000000000000000
-0.923386752605438 -11.456614494323730 0.572193562984467 0.000000000000000
-0.921247780323029 -12.161350250244141 0.536762773990631 0.000000000000000
-0.915237069129944 -10.744091033935547 1.148563742637634 0.000000000000000
-0.911718904972076 -12.620294570922852 2.631866216659546 0.000000000000000
-0.902364552021027 -11.344110488891602 0.303956955671310 1.000000000000000
-0.892952442169189 -11.510396957397461 0.264008313417435 0.000000000000000
-0.891070187091827 -12.041989326477051 0.996981978416443 0.000000000000000
-0.890640199184418 -12.024768829345703 1.604557991027832 1.000000000000000
-0.889642119407654 -10.711043357849121 0.974355161190033 1.000000000000000
-0.887098371982574 -11.787034988403320 0.293012171983719 0.000000000000000
-0.880735039710999 -11.891036033630371 0.823324382305145 1.000000000000000
-0.877516150474548 -12.029974937438965 1.476745963096619 0.000000000000000
-0.870942413806915 -11.143453598022461 0.879683494567871 0.000000000000000
-0.869622647762299 -10.932494163513184 0.994217813014984 1.000000000000000
-0.866438984870911 -12.279778480529785 0.660238087177277 0.000000000000000
-0.860409319400787 -12.517911911010742 2.609873056411743 0.000000000000000
-0.855352878570557 -10.995868682861328 1.252705812454224 0.000000000000000
-0.845017135143280 -11.320290565490723 1.209148287773132 1.000000000000000
-0.839859127998352 -11.167172431945801 0.170058354735374 1.000000000000000
-0.838038802146912 -10.722460746765137 1.145598173141479 0.000000000000000
-0.827845275402069 -11.251615524291992 0.561652660369873 0.000000000000000
-0.822324931621552 -11.469232559204102 0.174613490700722 1.000000000000000
-0.812246918678284 -11.627336502075195 0.087476477026939 1.000000000000000
-0.810711622238159 -10.956017494201660 1.345015287399292 1.000000000000000
-0.806866824626923 -11.217951774597168 0.451723486185074 1.000000000000000
-0.796572864055634 -11.300826072692871 0.585790216922760 1.000000000000000
-0.796438872814178 -11.810176849365234 0.407151907682419 0.000000000000000
-0.793627738952637 -10.012507438659668 0.751679837703705 1.000000000000000
-0.786753714084625 -11.977908134460449 0.320617973804474 1.000000000000000
-0.783420264720917 -10.734852790832520 0.597998738288879 0.000000000000000
-0.783374249935150 -11.487994194030762 0.174856424331665 1.000000000000000
-0.780423581600189 -12.411404609680176 0.045580223202705 0.000000000000000
-0.777672052383423 -9.997253417968750 0.808551311492920 0.000000000000000
-0.775346875190735 -10.928971290588379 0.883458852767944 1.000000000000000
-0.773788809776306 -11.183506965637207 0.817327797412872 1.000000000000000
-0.759750425815582 -10.980611801147461 0.997829258441925 0.000000000000000
-0.756041228771210 -11.590764045715332 2.416005849838257 0.000000000000000
-0.754710257053375 -10.896728515625000 0.901858985424042 1.000000000000000
-0.750638663768768 -11.674181938171387 0.200109705328941 0.000000000000000
-0.747784674167633 -10.769464492797852 1.321682810783386 1.000000000000000
-0.746256828308105 -12.090388298034668 1.151452779769897 0.000000000000000
-0.737524807453156 -12.265689849853516 0.943340718746185 1.000000000000000
-0.730550169944763 3.428724527359009 0.127322435379028 0.000000000000000
-0.727518081665039 -11.153479576110840 0.491915345191956 0.000000000000000
-0.721414387226105 -11.284258842468262 1.284305572509766 1.000000000000000
-0.713744878768921 -12.113698959350586 1.001919150352478 0.000000000000000
-0.708101272583008 -10.780466079711914 0.979411125183105 1.000000000000000
-0.706471443176270 -11.317305564880371 1.388277411460876 0.000000000000000
-0.704584360122681 3.363555431365967 0.366049081087112 0.000000000000000
-0.695198893547058 3.315003156661987 0.077455855906010 0.000000000000000
-0.694537460803986 -10.801676750183105 0.018891435116529 1.000000000000000
-0.688490688800812 -12.192385673522949 0.068204328417778 1.000000000000000
-0.681598246097565 -10.882190704345703 0.102766253054142 1.000000000000000
-0.665743410587311 -9.939313888549805 0.668633222579956 0.000000000000000
-0.659378468990326 -11.619198799133301 0.221427053213120 0.000000000000000
-0.654020965099335 -11.014935493469238 0.549321711063385 0.000000000000000
-0.647619426250458 -10.071991920471191 0.794319987297058 0.000000000000000
-0.645193874835968 -12.116816520690918 1.378202199935913 1.000000000000000
-0.644338250160217 -10.078645706176758 0.814338207244873 1.000000000000000
-0.643299281597137 -9.945170402526855 1.000005006790161 1.000000000000000
-0.636955082416534 3.268316030502319 0.120934538543224 0.000000000000000
-0.634024322032928 -11.907052040100098 0.043703645467758 1.000000000000000
-0.626204550266266 -14.647498130798340 0.955785214900970 0.000000000000000
-0.625686585903168 -11.247571945190430 1.669492006301880 1.000000000000000
-0.617594003677368 -11.831812858581543 0.043425094336271 0.000000000000000
-0.612664937973022 -11.069244384765625 0.466587215662003 0.000000000000000
-0.604360640048981 -11.119667053222656 1.117417693138123 1.000000000000000
-0.603858828544617 -11.226126670837402 0.192310556769371 0.000000000000000
-0.594781637191772 -11.057374954223633 1.179491519927979 0.000000000000000
-0.591611802577972 -10.425052642822266 0.359162718057632 1.000000000000000
-0.589977622032166 -11.138431549072266 0.920949339866638 1.000000000000000
-0.589346408843994 -10.423722267150879 0.399253696203232 0.000000000000000
-0.588354945182800 -12.169079780578613 2.082528829574585 0.000000000000000
-0.586850941181183 -10.243186950683594 0.017907068133354 1.000000000000000
-0.583535373210907 -10.848299980163574 0.018961247056723 0.000000000000000
-0.582795917987823 3.042419433593750 0.118461564183235 0.000000000000000
-0.575018227100372 -12.288962364196777 1.310404896736145 0.000000000000000
-0.572410047054291 -10.341943740844727 1.770486474037170 1.000000000000000
-0.565769612789154 -11.250062942504883 1.199827551841736 0.000000000000000
-0.561388790607452 -10.142819404602051 0.920906484127045 1.000000000000000
-0.554956257343292 -12.344708442687988 1.076766490936279 0.000000000000000
-0.554937660694122 -12.499889373779297 2.602541685104370 0.000000000000000
-0.554919898509979 -12.372774124145508 1.122783660888672 0.000000000000000
-0.550726413726807 -12.279273986816406 0.328307688236237 1.000000000000000
-0.546584546566010 -12.816567420959473 1.570561766624451 0.000000000000000
-0.541433751583099 -12.234268188476562 1.814920067787170 1.000000000000000
-0.532582104206085 -11.612113952636719 0.802658617496490 0.000000000000000
-0.518817245960236 -10.450967788696289 0.058441702276468 1.000000000000000
-0.513760805130005 -11.572386741638184 1.101109862327576 1.000000000000000
-0.510552406311035 -12.346227645874023 2.112182855606079 0.000000000000000
-0.510318994522095 -11.378330230712891 0.830416619777679 0.000000000000000
-0.509992361068726 -11.344510078430176 1.682979226112366 0.000000000000000
-0.508984267711639 -10.459328651428223 0.078590743243694 1.000000000000000
-0.508835792541504 -12.441469192504883 1.183626770973206 1.000000000000000
-0.508809506893158 -11.602529525756836 1.165341258049011 1.000000000000000
-0.503018915653229 -14.066684722900391 0.484154641628265 0.000000000000000
-0.501324236392975 -8.518610954284668 0.622158050537109 0.000000000000000
-0.499451458454132 -12.359939575195312 0.496831595897675 0.000000000000000
-0.496230691671371 -12.296194076538086 1.234830379486084 1.000000000000000
-0.489813864231110 -11.485382080078125 0.064205445349216 1.000000000000000
-0.485160052776337 -12.359166145324707 0.425440043210983 0.000000000000000
-0.477595120668411 -12.615854263305664 2.158012151718140 0.000000000000000
-0.469366461038589 -14.722669601440430 1.960188388824463 0.000000000000000
-0.465765148401260 -10.921476364135742 0.733728528022766 0.000000000000000
-0.462737739086151 -10.688348770141602 0.347424268722534 0.000000000000000
-0.462089627981186 -11.887912750244141 0.272055685520172 0.000000000000000
-0.451497793197632 -11.345034599304199 0.368716329336166 0.000000000000000
-0.446377336978912 -9.651560783386230 1.097415566444397 0.000000000000000
-0.441987246274948 -10.338487625122070 0.037927318364382 1.000000000000000
-0.431268692016602 -10.112587928771973 0.212021067738533 0.000000000000000
-0.427347451448441 -11.985753059387207 0.251225262880325 0.000000000000000
-0.424567222595215 -9.931016921997070 1.129015326499939 1.000000000000000
-0.421936273574829 -11.145605087280273 0.641158699989319 0.000000000000000
-0.421664804220200 -10.535244941711426 0.301878422498703 0.000000000000000
-0.419515460729599 -12.171751022338867 1.804951310157776 0.000000000000000
