# This PCD file was generated using the MATLAB® pcwrite function
# from Computer Vision Toolbox®.
# .PCD v.7 - Point Cloud Data file format
VERSION .7
FIELDS x y z intensity
SIZE 8 8 8 8
TYPE F F F F
COUNT 1 1 1 1
WIDTH 650
HEIGHT 1
VIEWPOINT 0 0 0 1 0 0 0
POINTS 650
DATA ascii
2.813241243362427 -2.503689289093018 0.274575591087341 0.000000000000000
2.817390441894531 -10.844056129455566 0.946740269660950 0.000000000000000
2.822252988815308 -8.639288902282715 0.968081176280975 0.000000000000000
2.822310686111450 -10.004482269287109 0.878370165824890 0.000000000000000
2.826382637023926 -12.414290428161621 0.903705120086670 0.000000000000000
2.832406997680664 -2.263590335845947 0.363819718360901 0.000000000000000
2.832627534866333 -10.412873268127441 0.890997111797333 0.000000000000000
2.837710618972778 -0.982589960098267 0.319869279861450 0.000000000000000
2.838294506072998 -1.976415276527405 0.347046434879303 0.000000000000000
2.839925050735474 -2.607604980468750 0.310882359743118 0.000000000000000
2.842990398406982 -13.338581085205078 2.331219196319580 0.000000000000000
2.845304965972900 -3.412739276885986 1.190567731857300 0.000000000000000
2.854186058044434 -2.002311229705811 0.349841982126236 0.000000000000000
2.856021165847778 -10.439140319824219 1.152800440788269 0.000000000000000
2.859767675399780 -0.979619204998016 0.321987628936768 0.000000000000000
2.866180658340454 -1.361698389053345 0.261999905109406 0.000000000000000
2.872400999069214 -12.410106658935547 0.928728640079498 0.000000000000000
2.874528884887695 -12.914948463439941 1.092434287071228 0.000000000000000
2.875802755355835 -10.719168663024902 0.916341364383698 0.000000000000000
2.878625392913818 -10.379281044006348 1.147292733192444 0.000000000000000
2.882732152938843 -14.678484916687012 0.715909719467163 0.000000000000000
2.883037805557251 -14.244379997253418 2.484207630157471 0.000000000000000
2.884536981582642 -1.997944235801697 0.147679716348648 1.000000000000000
2.885649681091309 -9.122121810913086 1.273199081420898 0.000000000000000
2.891604423522949 -8.521322250366211 0.621350944042206 0.000000000000000
2.891801834106445 -9.439798355102539 1.687589764595032 0.000000000000000
2.900749921798706 -10.865181922912598 0.928519725799561 0.000000000000000
2.900750875473022 -9.352320671081543 0.887681603431702 0.000000000000000
2.905918836593628 -9.959403991699219 1.537551164627075 0.000000000000000
2.906841278076172 -3.587216854095459 1.237155079841614 0.000000000000000
2.913623332977295 -10.814128875732422 1.123807430267334 0.000000000000000
2.918975591659546 -2.031915903091431 0.156526505947113 0.000000000000000
2.921844482421875 -2.475975990295410 0.279229402542114 0.000000000000000
2.923140287399292 -2.750584840774536 0.686088740825653 0.000000000000000
2.930009365081787 -6.758548736572266 1.532200574874878 0.000000000000000
2.935838222503662 -12.769371986389160 0.879456341266632 0.000000000000000
2.937327861785889 -11.096950531005859 0.814778923988342 0.000000000000000
2.939800500869751 -10.523504257202148 1.337723851203918 0.000000000000000
2.940468072891235 -14.528128623962402 0.395913034677505 0.000000000000000
2.946920156478882 -1.809697508811951 0.512517035007477 0.000000000000000
2.949211359024048 -8.498578071594238 0.603805840015411 0.000000000000000
2.952126979827881 -9.068474769592285 0.864568650722504 0.000000000000000
2.952628612518311 -8.405978202819824 1.185610651969910 0.000000000000000
2.969436168670654 -8.723659515380859 1.128218412399292 0.000000000000000
2.973201751708984 -10.286071777343750 1.216140508651733 0.000000000000000
2.993014097213745 -10.148458480834961 0.959187269210815 0.000000000000000
2.993395566940308 -10.417248725891113 1.852709293365479 0.000000000000000
2.996212720870972 -3.257329940795898 0.444091677665710 0.000000000000000
3.001222610473633 -11.832924842834473 0.890043795108795 0.000000000000000
3.011540889739990 -2.677721500396729 0.383060574531555 0.000000000000000
3.011700153350830 -8.405802726745605 0.582110404968262 0.000000000000000
3.019347906112671 -13.932070732116699 1.177024722099304 0.000000000000000
3.019407033920288 -1.282035231590271 0.277185052633286 0.000000000000000
3.021549940109253 -9.333726882934570 0.810027360916138 0.000000000000000
3.023187637329102 -13.713715553283691 0.375086724758148 0.000000000000000
3.025343894958496 -14.035457611083984 0.991406083106995 0.000000000000000
3.025531291961670 -8.809753417968750 0.787097811698914 0.000000000000000
3.028967618942261 -2.220199108123779 1.006288528442383 1.000000000000000
3.030454397201538 -8.941786766052246 0.761292040348053 0.000000000000000
3.031358718872070 -2.457462787628174 1.045628905296326 0.000000000000000
3.033059358596802 -3.471230983734131 0.683160603046417 0.000000000000000
3.033298015594482 -10.696638107299805 1.007941126823425 0.000000000000000
3.042713880538940 -9.449739456176758 2.064927577972412 0.000000000000000
3.043963909149170 -10.647821426391602 1.473702907562256 0.000000000000000
3.052388191223145 -8.652297973632812 1.568299293518066 0.000000000000000
3.054066419601440 -10.095170974731445 1.802836537361145 0.000000000000000
3.070149183273315 -10.800019264221191 3.008512735366821 0.000000000000000
3.073699712753296 -12.487518310546875 1.061823606491089 0.000000000000000
3.074444770812988 -3.489973306655884 0.442109435796738 0.000000000000000
3.076036691665649 -2.475938320159912 1.058052301406860 0.000000000000000
3.081119775772095 -1.318533062934875 0.572863936424255 0.000000000000000
3.087732315063477 -10.659980773925781 1.476868629455566 0.000000000000000
3.087804079055786 -2.703073024749756 0.259627103805542 0.000000000000000
3.090088129043579 -1.335151910781860 0.305163115262985 0.000000000000000
3.105687618255615 -14.205847740173340 0.276669681072235 0.000000000000000
3.107990503311157 -2.777790784835815 0.444003999233246 1.000000000000000
3.108700990676880 -7.638971805572510 1.097494482994080 1.000000000000000
3.112278461456299 -1.966892480850220 0.275536328554153 0.000000000000000
3.115076303482056 -10.428041458129883 0.986633896827698 0.000000000000000
3.119353532791138 -0.903953969478607 0.325880199670792 0.000000000000000
3.120157957077026 -0.915413558483124 0.326279580593109 0.000000000000000
3.124175548553467 -2.273264408111572 1.035276174545288 0.000000000000000
3.125884056091309 -1.960255146026611 0.276133388280869 0.000000000000000
3.126473903656006 -2.890891790390015 0.343353033065796 0.000000000000000
3.130273580551147 -1.523897051811218 0.595104515552521 0.000000000000000
3.133211135864258 -6.538929462432861 1.239408016204834 1.000000000000000
3.133810281753540 -11.108681678771973 1.535964608192444 0.000000000000000
3.138457775115967 -12.465254783630371 1.036488890647888 0.000000000000000
3.146477937698364 -12.467692375183105 0.491730153560638 0.000000000000000
3.146952390670776 -10.809342384338379 0.820818126201630 0.000000000000000
3.148811817169189 -13.364165306091309 1.305131196975708 0.000000000000000
3.148984193801880 -3.858422279357910 1.334470987319946 0.000000000000000
3.152654409408569 -2.519524335861206 0.185379594564438 1.000000000000000
3.156341552734375 -2.801247596740723 0.449511706829071 0.000000000000000
3.156500577926636 -0.868970930576324 0.680978059768677 0.000000000000000
3.166279792785645 -7.445550918579102 1.682895421981812 0.000000000000000
3.171042680740356 -10.880768775939941 2.357357025146484 0.000000000000000
3.173414945602417 -14.068955421447754 1.536219954490662 0.000000000000000
3.173981904983521 -12.779540061950684 0.073543608188629 0.000000000000000
3.177287101745605 -11.185061454772949 1.105273485183716 0.000000000000000
3.178491592407227 -2.050675630569458 0.402908205986023 1.000000000000000
3.189720630645752 -1.511317253112793 0.432135373353958 0.000000000000000
3.195007801055908 -9.303236007690430 0.679215073585510 0.000000000000000
3.195190668106079 -0.925930738449097 0.891372859477997 0.000000000000000
3.195554494857788 -3.860154390335083 1.342753291130066 0.000000000000000
3.196282863616943 -12.966029167175293 2.777673721313477 0.000000000000000
3.199311971664429 -6.842540740966797 2.023964881896973 0.000000000000000
3.203238010406494 -3.458092212677002 1.263036966323853 0.000000000000000
3.204506635665894 -11.209401130676270 0.985135316848755 0.000000000000000
3.204683065414429 -14.112300872802734 0.108610130846500 0.000000000000000
3.205971956253052 -9.238471031188965 0.505646824836731 0.000000000000000
3.214934110641479 -6.813859939575195 2.018788576126099 0.000000000000000
3.217363357543945 -9.376852035522461 0.360045194625854 0.000000000000000
3.219185590744019 -12.928747177124023 0.663283169269562 0.000000000000000
3.224313735961914 -12.099164009094238 0.816307723522186 0.000000000000000
3.233408927917480 -9.923114776611328 2.170821189880371 0.000000000000000
3.234022378921509 -14.511008262634277 1.256258010864258 0.000000000000000
3.234543323516846 -1.370850682258606 0.600496172904968 0.000000000000000
3.235712289810181 -0.924831449985504 0.901725590229034 0.000000000000000
3.236946344375610 -9.034475326538086 0.773830235004425 0.000000000000000
3.236956596374512 -13.033097267150879 0.281298607587814 0.000000000000000
3.247389793395996 -10.095057487487793 0.961354136466980 0.000000000000000
3.253907442092896 -10.991347312927246 0.548596382141113 0.000000000000000
3.258861780166626 -14.641715049743652 1.836453676223755 0.000000000000000
3.260124921798706 -13.029140472412109 0.178163588047028 0.000000000000000
3.262529373168945 -4.004250049591064 0.882884383201599 0.000000000000000
3.266882896423340 -13.856607437133789 2.109881401062012 0.000000000000000
3.268932342529297 -1.315494298934937 0.944171905517578 0.000000000000000
3.271110773086548 -11.535262107849121 2.049504995346069 0.000000000000000
3.273344039916992 -11.253728866577148 0.967688024044037 0.000000000000000
3.273890495300293 -1.126523971557617 0.199027776718140 0.000000000000000
3.276175022125244 -3.637411594390869 1.311694979667664 0.000000000000000
3.276913881301880 -10.885240554809570 1.512748360633850 0.000000000000000
3.285494327545166 -9.711598396301270 0.806873381137848 0.000000000000000
3.288286685943604 -13.841349601745605 1.893177866935730 0.000000000000000
3.289528846740723 -11.361106872558594 0.976575016975403 0.000000000000000
3.292060613632202 -13.756831169128418 2.942216396331787 0.000000000000000
3.292275667190552 -13.892642974853516 0.271647632122040 0.000000000000000
3.295815467834473 -14.328223228454590 1.956494927406311 0.000000000000000
3.299522876739502 -2.112486839294434 0.417312920093536 0.000000000000000
3.300076723098755 -14.228472709655762 1.388405203819275 0.000000000000000
3.302145481109619 -12.816424369812012 0.990497887134552 0.000000000000000
3.303562164306641 -11.654354095458984 0.859808444976807 0.000000000000000
3.305658340454102 -7.926511287689209 1.786345601081848 0.000000000000000
3.308608293533325 -13.222905158996582 1.295668244361877 0.000000000000000
3.313372611999512 -2.446490764617920 1.103604555130005 0.000000000000000
3.313547611236572 -1.241785883903503 0.308342039585114 0.000000000000000
3.320634365081787 -8.998072624206543 1.421443104743958 0.000000000000000
3.328940629959106 -11.644673347473145 0.836274921894073 0.000000000000000
3.329727649688721 -11.807897567749023 0.823468983173370 0.000000000000000
3.338564872741699 -13.994322776794434 1.187886476516724 0.000000000000000
3.339613676071167 -9.792115211486816 1.768464565277100 0.000000000000000
3.340901613235474 -13.061151504516602 0.904905140399933 0.000000000000000
3.341863155364990 -10.848074913024902 0.915286540985107 0.000000000000000
3.342203140258789 -14.301187515258789 1.954384326934814 0.000000000000000
3.343715190887451 -8.561170578002930 1.223073124885559 0.000000000000000
3.345255136489868 -6.861220836639404 1.304781794548035 1.000000000000000
3.348045349121094 -11.606419563293457 1.286679506301880 0.000000000000000
3.351609468460083 -11.668457984924316 0.300942152738571 0.000000000000000
3.356642723083496 -13.137969970703125 1.093392968177795 0.000000000000000
3.359306573867798 -14.066036224365234 1.054381966590881 0.000000000000000
3.362679004669189 -14.413781166076660 1.681108713150024 0.000000000000000
3.364547252655029 -13.249869346618652 1.299453377723694 0.000000000000000
3.367708206176758 -11.691432952880859 3.260084867477417 0.000000000000000
3.375904083251953 -11.583707809448242 1.146910548210144 0.000000000000000
3.383721590042114 -14.059616088867188 1.166049957275391 0.000000000000000
3.388605594635010 -12.444665908813477 0.940363168716431 0.000000000000000
3.391912460327148 -1.248249650001526 0.314939469099045 0.000000000000000
3.395433902740479 -14.073728561401367 0.999672353267670 0.000000000000000
3.396342039108276 -10.087366104125977 0.878818750381470 0.000000000000000
3.396870374679565 -12.723473548889160 0.275853574275970 0.000000000000000
3.408795595169067 -11.973806381225586 1.326080560684204 0.000000000000000
3.409644603729248 -10.910881042480469 1.521190643310547 0.000000000000000
3.410486936569214 -13.348716735839844 0.262136161327362 0.000000000000000
3.411270141601562 -11.859008789062500 2.566700935363770 0.000000000000000
3.413287639617920 -14.438095092773438 1.580281376838684 0.000000000000000
3.415074348449707 -13.351127624511719 0.288670331239700 0.000000000000000
3.419658899307251 -3.881844997406006 1.076043128967285 0.000000000000000
3.424549102783203 -11.521196365356445 0.829937458038330 0.000000000000000
3.425067424774170 -11.345800399780273 1.450983166694641 0.000000000000000
3.427388668060303 -10.876242637634277 1.214655876159668 0.000000000000000
3.428690671920776 -11.535129547119141 1.601392149925232 0.000000000000000
3.431069135665894 -0.807783126831055 0.602518081665039 0.000000000000000
3.439495801925659 -1.973726034164429 0.422396928071976 0.000000000000000
3.441366910934448 -6.698474884033203 1.287258982658386 0.000000000000000
3.445262432098389 -10.507246971130371 0.763531446456909 0.000000000000000
3.446884155273438 -13.832923889160156 0.052250854671001 0.000000000000000
3.449749946594238 -8.919835090637207 1.272671461105347 0.000000000000000
3.451682806015015 -0.388449341058731 0.213055178523064 0.000000000000000
3.460229873657227 -13.835007667541504 2.437704324722290 0.000000000000000
3.472206830978394 -3.541865587234497 0.528313934803009 1.000000000000000
3.473190069198608 -2.917556285858154 1.215414285659790 0.000000000000000
3.484703302383423 -13.232075691223145 1.156228780746460 0.000000000000000
3.487508058547974 -1.892853140830994 0.398164898157120 0.000000000000000
3.494105815887451 -11.461607933044434 1.594532728195190 0.000000000000000
3.499649763107300 -10.275447845458984 0.896263420581818 0.000000000000000
3.500924825668335 -11.668448448181152 0.958770215511322 0.000000000000000
3.503146171569824 -11.246615409851074 0.927072763442993 0.000000000000000
3.503165721893311 -12.488841056823730 1.301523923873901 0.000000000000000
3.503875494003296 -9.365562438964844 0.806300878524780 0.000000000000000
3.504214286804199 -3.599563837051392 0.535092592239380 0.000000000000000
3.511594533920288 -8.459357261657715 1.218852043151855 0.000000000000000
3.514292478561401 -11.285870552062988 0.293012171983719 0.000000000000000
3.521120786666870 -2.830952882766724 0.355576634407043 0.000000000000000
3.522409915924072 -10.504211425781250 0.743640184402466 0.000000000000000
3.524842739105225 -11.283660888671875 0.793466210365295 0.000000000000000
3.525323867797852 -14.211125373840332 1.663051724433899 0.000000000000000
3.528028249740601 -14.141735076904297 1.784441947937012 0.000000000000000
3.528224706649780 -1.963058948516846 1.081863641738892 0.000000000000000
3.528763294219971 -13.982469558715820 1.919032335281372 0.000000000000000
3.532967805862427 -9.531419754028320 0.682295262813568 0.000000000000000
3.533265590667725 -10.141596794128418 0.886718273162842 0.000000000000000
3.536107301712036 -10.545059204101562 0.918316245079041 0.000000000000000
3.538545846939087 -1.984196662902832 1.087040066719055 0.000000000000000
3.539385318756104 -0.962558388710022 0.543596446514130 0.000000000000000
3.541033029556274 -0.815624237060547 0.364618420600891 0.000000000000000
3.542352676391602 -11.982579231262207 3.348083257675171 0.000000000000000
3.544232368469238 -11.262111663818359 0.179290086030960 0.000000000000000
3.544262409210205 -8.216259002685547 0.756112396717072 0.000000000000000
3.547337055206299 -6.956637382507324 1.624246716499329 0.000000000000000
3.549110651016235 -4.325065612792969 0.956345736980438 0.000000000000000
3.555794477462769 -2.722939729690552 0.111019499599934 1.000000000000000
3.558789968490601 -12.132369995117188 0.848649919033051 0.000000000000000
3.560366392135620 -13.834630012512207 1.295047283172607 0.000000000000000
3.561563014984131 -10.606234550476074 0.729394495487213 0.000000000000000
3.565529346466064 -4.046291828155518 0.799268543720245 0.000000000000000
3.566437959671021 -6.233405113220215 1.064323067665100 0.000000000000000
3.569619178771973 -8.213089942932129 0.290818512439728 1.000000000000000
3.576645374298096 -0.221012771129608 0.247438192367554 0.000000000000000
3.576917409896851 -0.837048530578613 0.368612051010132 0.000000000000000
3.588284730911255 -12.388071060180664 0.890557050704956 0.000000000000000
3.588438272476196 -2.501653432846069 0.909871459007263 0.000000000000000
3.588734149932861 -8.215850830078125 0.636360228061676 0.000000000000000
3.591370344161987 -12.177313804626465 2.170143365859985 0.000000000000000
3.598286151885986 -5.542569160461426 1.129552841186523 0.000000000000000
3.599086761474609 -2.454577922821045 0.645630717277527 0.000000000000000
3.599526643753052 -9.724524497985840 1.177769303321838 0.000000000000000
3.602857828140259 -1.198371529579163 0.649021148681641 0.000000000000000
3.607014894485474 -8.206110000610352 0.050064165145159 1.000000000000000
3.613250494003296 -2.500254154205322 0.913944303989410 0.000000000000000
3.613646745681763 -11.626379013061523 1.804364919662476 0.000000000000000
3.616573572158813 -11.805693626403809 0.900223970413208 0.000000000000000
3.618680953979492 -4.380145549774170 0.971172869205475 0.000000000000000
3.622464179992676 -2.399293422698975 0.742701172828674 0.000000000000000
3.623836517333984 -1.535839319229126 0.356806099414825 0.000000000000000
3.631448030471802 -10.945869445800781 0.796321094036102 0.000000000000000
3.632580518722534 -1.815731406211853 0.694176316261292 0.000000000000000
3.633658885955811 -10.777284622192383 1.031054019927979 0.000000000000000
3.634750843048096 -11.592830657958984 1.487440109252930 0.000000000000000
3.636675357818604 -12.937017440795898 1.057628750801086 0.000000000000000
3.643102645874023 -11.314362525939941 1.129877209663391 0.000000000000000
3.644179105758667 -3.834530591964722 0.385685652494431 0.000000000000000
3.646128416061401 -14.514773368835449 1.177828073501587 0.000000000000000
3.646440267562866 -10.110655784606934 1.837208271026611 0.000000000000000
3.647483587265015 -7.404181957244873 1.223238706588745 0.000000000000000
3.648032188415527 -1.045505166053772 0.360727965831757 0.000000000000000
3.649111270904541 -6.421509742736816 1.536273479461670 0.000000000000000
3.650969505310059 -1.228545069694519 0.658456563949585 0.000000000000000
3.653690099716187 -3.338734149932861 1.326188802719116 0.000000000000000
3.658832550048828 -9.839356422424316 1.285225987434387 0.000000000000000
3.662099123001099 -13.551650047302246 1.594434976577759 0.000000000000000
3.662535429000854 -8.174684524536133 0.204841926693916 1.000000000000000
3.663511514663696 -12.181759834289551 1.050303578376770 0.000000000000000
3.673384904861450 -2.034347057342529 0.273750633001328 0.000000000000000
3.673692941665649 -2.835462808609009 0.965261995792389 0.000000000000000
3.677280902862549 -13.693197250366211 1.033730506896973 0.000000000000000
3.677926778793335 -8.246809005737305 0.786827743053436 1.000000000000000
3.678944826126099 -2.040783882141113 0.274271070957184 0.000000000000000
3.682892084121704 -8.190217018127441 0.654734849929810 1.000000000000000
3.687485218048096 -12.315230369567871 1.289942502975464 0.000000000000000
3.687534809112549 -4.329928398132324 1.523926615715027 0.000000000000000
3.702162504196167 -12.572387695312500 1.604588031768799 0.000000000000000
3.708240270614624 -13.742394447326660 0.243483915925026 0.000000000000000
3.709779262542725 -4.013497352600098 0.451258599758148 0.000000000000000
3.710714817047119 -1.871003985404968 0.710351228713989 0.000000000000000
3.713667154312134 -12.755928993225098 1.204401254653931 0.000000000000000
3.714552879333496 -14.158026695251465 1.559097886085510 0.000000000000000
3.715627670288086 -14.231920242309570 1.072415471076965 0.000000000000000
3.717302083969116 -12.360622406005859 0.468784660100937 0.000000000000000
3.719957590103149 -13.735287666320801 0.982588648796082 0.000000000000000
3.725533962249756 -13.948668479919434 0.996916949748993 0.000000000000000
3.730348110198975 -10.457549095153809 1.897864580154419 0.000000000000000
3.734691143035889 -12.263067245483398 0.860436677932739 0.000000000000000
3.735197067260742 -11.587900161743164 1.804364919662476 0.000000000000000
3.738029956817627 -12.110032081604004 0.875126600265503 0.000000000000000
3.738570690155029 -3.184136152267456 1.315836071968079 0.000000000000000
3.739441156387329 -11.765409469604492 1.119172215461731 0.000000000000000
3.740883350372314 -14.398553848266602 1.027226686477661 0.000000000000000
3.742701530456543 -14.044402122497559 1.650863170623779 0.000000000000000
3.747001171112061 -11.777796745300293 2.570773601531982 0.000000000000000
3.747334480285645 -2.590038537979126 1.220590591430664 0.000000000000000
3.748337507247925 -3.846164226531982 0.433049172163010 0.000000000000000
3.752945661544800 -2.250898122787476 0.648562729358673 0.000000000000000
3.754143714904785 -12.314601898193359 1.087858796119690 0.000000000000000
3.759864091873169 -13.406674385070801 2.063555479049683 0.000000000000000
3.761271238327026 -14.134897232055664 1.151152014732361 0.000000000000000
3.764047861099243 -1.218729376792908 1.060122847557068 0.000000000000000
3.765128612518311 -7.392032146453857 1.418006658554077 0.000000000000000
3.767630577087402 -2.696165084838867 0.373573213815689 0.000000000000000
3.770247697830200 -11.364237785339355 1.011742353439331 0.000000000000000
3.774884462356567 -2.260474681854248 0.652081191539764 0.000000000000000
3.775433063507080 -10.301253318786621 0.736407339572906 0.000000000000000
3.775602579116821 -10.126314163208008 1.027298808097839 0.000000000000000
3.775835514068604 -13.140200614929199 1.239431738853455 0.000000000000000
3.776627063751221 -6.592227935791016 1.580260038375854 0.000000000000000
3.777195930480957 -4.234072208404541 0.840903222560883 0.000000000000000
3.778233051300049 -11.948112487792969 0.647963285446167 0.000000000000000
3.781584262847900 -1.239738941192627 1.066334605216980 0.000000000000000
3.781622648239136 -3.916121244430542 1.458704113960266 0.000000000000000
3.782294273376465 -13.594279289245605 1.727569222450256 0.000000000000000
3.783923864364624 -12.453582763671875 1.024362087249756 0.000000000000000
3.794877052307129 -1.101220965385437 0.821898162364960 0.000000000000000
3.795121669769287 -3.210647821426392 0.498804390430450 0.000000000000000
3.805546045303345 -3.896149396896362 0.386573940515518 0.000000000000000
3.811384677886963 -0.917073071002960 0.248009562492371 0.000000000000000
3.815084934234619 -14.034097671508789 1.780553221702576 0.000000000000000
3.816202878952026 -1.282218337059021 0.382682025432587 0.000000000000000
3.821523666381836 -13.643020629882812 1.346768140792847 0.000000000000000
3.821646690368652 -5.844094753265381 1.193578839302063 0.000000000000000
3.823647022247314 -8.664451599121094 1.618846058845520 0.000000000000000
3.825095891952515 -11.402897834777832 0.830488562583923 0.000000000000000
3.828614950180054 -2.721760034561157 0.369699299335480 0.000000000000000
3.832319021224976 -11.043379783630371 0.244858786463737 0.000000000000000
3.843143463134766 -11.947057723999023 2.145206928253174 0.000000000000000
3.845677852630615 -13.837046623229980 0.936268806457520 0.000000000000000
3.846933126449585 -12.310207366943359 0.890557050704956 0.000000000000000
3.848418235778809 -13.641812324523926 0.978731036186218 0.000000000000000
3.849231004714966 -7.484008312225342 1.750504732131958 0.000000000000000
3.851212263107300 -1.503151416778564 1.107745528221130 0.000000000000000
3.856065511703491 -3.182766437530518 0.665355980396271 0.000000000000000
3.863197803497314 -12.845748901367188 0.693611979484558 0.000000000000000
3.863787174224854 -3.210740804672241 0.668521881103516 0.000000000000000
3.867339372634888 -11.532829284667969 0.441781282424927 0.000000000000000
3.878338336944580 -11.828026771545410 1.051821351051331 0.000000000000000
3.881403446197510 -11.623212814331055 1.816092967987061 0.000000000000000
3.886174678802490 -13.529520034790039 0.999144971370697 0.000000000000000
3.886203050613403 -3.557556629180908 0.645043432712555 0.000000000000000
3.899854898452759 -14.127511024475098 1.328633308410645 0.000000000000000
3.904356718063354 -3.675935745239258 0.380626678466797 0.000000000000000
3.904776811599731 -14.226621627807617 0.309026360511780 0.000000000000000
3.913571119308472 -0.722370624542236 0.360778659582138 0.000000000000000
3.914084434509277 -14.067957878112793 1.205660343170166 0.000000000000000
3.916001558303833 -12.753705978393555 3.574808597564697 0.000000000000000
3.916188478469849 -13.704300880432129 0.298555135726929 0.000000000000000
3.918058633804321 -2.144274473190308 1.196779251098633 1.000000000000000
3.920269250869751 -9.834208488464355 0.731017291545868 0.000000000000000
3.920803308486938 -1.486398577690125 0.398579806089401 0.000000000000000
3.921463489532471 -10.639884948730469 1.938301920890808 0.000000000000000
3.922389268875122 -11.962372779846191 1.675261974334717 0.000000000000000
3.927042961120605 -0.538706064224243 0.182075813412666 0.000000000000000
3.932766199111938 -2.051457881927490 0.758202195167542 0.000000000000000
3.934342861175537 -12.501721382141113 1.315102338790894 0.000000000000000
3.935500383377075 -3.445148944854736 0.557123303413391 0.000000000000000
3.939834117889404 -10.530842781066895 1.277082920074463 0.000000000000000
3.942665815353394 -2.075039863586426 0.761572003364563 1.000000000000000
3.943349361419678 -13.613883972167969 1.197655081748962 0.000000000000000
3.943936109542847 -1.187065005302429 1.103604555130005 0.000000000000000
3.951743841171265 -0.893390834331512 0.318857789039612 0.000000000000000
3.952140569686890 -10.713893890380859 2.375277519226074 0.000000000000000
3.952209234237671 -11.399143218994141 0.972833573818207 0.000000000000000
3.952851533889771 -14.401776313781738 1.002414107322693 0.000000000000000
3.960036039352417 -13.676850318908691 0.517129480838776 0.000000000000000
3.960476875305176 -10.617626190185547 1.679460883140564 0.000000000000000
3.961034774780273 -2.424568414688110 1.244401931762695 0.000000000000000
3.969350099563599 -12.280551910400391 1.040668249130249 0.000000000000000
3.972261905670166 -4.142380714416504 0.575881421566010 0.000000000000000
3.976345062255859 -14.224414825439453 1.219484448432922 0.000000000000000
3.977759122848511 -11.862112998962402 0.646930515766144 0.000000000000000
3.979317426681519 -1.870319485664368 0.312091201543808 0.000000000000000
3.979920387268066 -12.283942222595215 0.841809213161469 0.000000000000000
3.980717658996582 -12.480008125305176 1.030952572822571 0.000000000000000
3.985081434249878 -11.624899864196777 1.395807862281799 0.000000000000000
3.994468450546265 -0.722893595695496 0.368001461029053 0.000000000000000
3.997230052947998 -7.706171035766602 1.286570191383362 0.000000000000000
3.999177455902100 -14.373798370361328 0.083328574895859 0.000000000000000
4.001083374023438 -3.791315793991089 0.942192733287811 0.000000000000000
4.005980491638184 -2.493697404861450 0.448544234037399 0.000000000000000
4.013544082641602 -3.488797426223755 0.566443979740143 0.000000000000000
4.015277862548828 -13.051051139831543 1.454451918601990 0.000000000000000
4.018636703491211 -11.242779731750488 0.548429965972900 0.000000000000000
4.024746894836426 -12.663067817687988 2.271236896514893 0.000000000000000
4.027622699737549 -13.982410430908203 1.460071086883545 0.000000000000000
4.030369281768799 -3.787947177886963 0.481958031654358 0.000000000000000
4.031819820404053 -3.386817216873169 0.528357267379761 0.000000000000000
4.037118434906006 -4.171515464782715 0.468091756105423 0.000000000000000
4.040709495544434 -11.213673591613770 0.112341694533825 0.000000000000000
4.041202068328857 -6.275046348571777 1.275801658630371 0.000000000000000
4.044513225555420 -12.396913528442383 3.494057416915894 0.000000000000000
4.047826290130615 -0.625117540359497 0.259122014045715 0.000000000000000
4.049078941345215 -13.122613906860352 0.921781659126282 0.000000000000000
4.051476955413818 -2.444199800491333 0.281112223863602 0.000000000000000
4.054459095001221 -3.679067611694336 1.466986417770386 0.000000000000000
4.059042930603027 -10.452926635742188 1.916735291481018 0.000000000000000
4.060516357421875 -1.683664679527283 0.269625008106232 0.000000000000000
4.065705776214600 -12.507014274597168 1.085851311683655 0.000000000000000
4.068968772888184 -12.912190437316895 1.065474629402161 0.000000000000000
4.076130390167236 -11.376680374145508 0.415677219629288 0.000000000000000
4.078140735626221 -12.078886985778809 1.889393448829651 0.000000000000000
4.079031467437744 -2.519457578659058 0.455736100673676 0.000000000000000
4.081432342529297 -14.392783164978027 1.090739965438843 0.000000000000000
4.086219310760498 -14.432699203491211 1.836453676223755 0.000000000000000
4.087749004364014 -11.469594955444336 0.301834255456924 0.000000000000000
4.091182231903076 -3.817893981933594 0.561504364013672 0.000000000000000
4.094432830810547 -13.953036308288574 1.004081010818481 0.000000000000000
4.096511363983154 -13.635353088378906 0.270886689424515 0.000000000000000
4.104791641235352 -12.667845726013184 0.919489145278931 0.000000000000000
4.105640411376953 -12.718132972717285 1.423524260520935 0.000000000000000
4.108100891113281 -2.260128259658813 0.378074079751968 0.000000000000000
4.114109039306641 -11.768456459045410 0.572657823562622 0.000000000000000
4.114714145660400 -4.905811786651611 1.331817150115967 0.000000000000000
4.116531848907471 -2.832812070846558 0.435428977012634 0.000000000000000
4.116559028625488 -7.193155765533447 1.416658759117126 0.000000000000000
4.123238086700439 -5.928365707397461 1.934931278228760 0.000000000000000
4.141950130462646 -13.202442169189453 1.142464399337769 0.000000000000000
4.142435073852539 -3.838757753372192 0.566696107387543 0.000000000000000
4.148634910583496 -2.768678903579712 0.852556347846985 0.000000000000000
4.148802280426025 -3.175557613372803 0.401095867156982 0.000000000000000
4.149478435516357 -13.278354644775391 0.104407414793968 0.000000000000000
4.154127120971680 -14.274416923522949 1.055219411849976 0.000000000000000
4.154489994049072 -0.462403357028961 0.256400883197784 0.000000000000000
4.154830932617188 -8.967611312866211 2.648236513137817 0.000000000000000
4.155772209167480 -3.994720935821533 0.985325932502747 0.000000000000000
4.158989429473877 -1.574123144149780 0.341390728950500 0.000000000000000
4.160774707794189 -2.387625932693481 0.377545207738876 0.000000000000000
4.167447090148926 -4.415897846221924 0.442694962024689 0.000000000000000
4.167507171630859 -10.622215270996094 1.950433135032654 0.000000000000000
4.168168067932129 -14.204311370849609 1.250869274139404 0.000000000000000
4.174046516418457 -13.858322143554688 0.943554937839508 0.000000000000000
4.174898624420166 -3.127885103225708 0.400483518838882 0.000000000000000
4.178369522094727 -2.282758712768555 0.374720662832260 0.000000000000000
4.197892665863037 -14.128375053405762 0.989287853240967 0.000000000000000
4.199549674987793 -3.533594131469727 0.938148915767670 0.000000000000000
4.201539039611816 -12.755043983459473 2.295499324798584 0.000000000000000
4.208184719085693 -2.808420896530151 0.458647549152374 0.000000000000000
4.214563369750977 -1.431800007820129 0.387858182191849 0.000000000000000
4.218073844909668 -2.544705629348755 0.368675380945206 0.000000000000000
4.223415851593018 -12.793643951416016 3.610008239746094 0.000000000000000
4.223768234252930 -6.761543273925781 1.362742185592651 0.000000000000000
4.232688903808594 -5.005342483520508 0.657750844955444 0.000000000000000
4.234974384307861 -11.064793586730957 1.576593041419983 0.000000000000000
4.242728233337402 -3.595295190811157 0.504151105880737 0.000000000000000
4.243574619293213 -2.911188125610352 0.516376376152039 0.000000000000000
4.243757724761963 -3.621695041656494 0.953649938106537 1.000000000000000
4.246167182922363 -6.747499465942383 1.362742185592651 0.000000000000000
4.249314785003662 -1.851359844207764 0.440595328807831 0.000000000000000
4.249548435211182 -4.056418418884277 1.004196763038635 1.000000000000000
4.261963367462158 -12.559658050537109 1.764961123466492 0.000000000000000
4.268410682678223 -3.962843656539917 0.863186597824097 0.000000000000000
4.271448135375977 -0.965668022632599 0.277053445577621 0.000000000000000
4.277794361114502 -1.439470648765564 0.409171372652054 0.000000000000000
4.278315067291260 -3.004842281341553 1.087447047233582 0.000000000000000
4.280015945434570 -14.147528648376465 1.077651023864746 0.000000000000000
4.283967971801758 -13.270542144775391 1.097485899925232 0.000000000000000
4.286949634552002 -13.499460220336914 1.169454336166382 0.000000000000000
4.290312290191650 -3.684001922607422 1.176234841346741 0.000000000000000
4.300745010375977 -11.550778388977051 1.117366552352905 0.000000000000000
4.306725025177002 -7.402071475982666 1.463835835456848 0.000000000000000
4.310018539428711 -1.965188026428223 1.269248604774475 0.000000000000000
4.310275077819824 -1.143170714378357 0.660877227783203 0.000000000000000
4.310378074645996 -1.665051579475403 0.463660418987274 0.000000000000000
4.315219879150391 -2.045141935348511 0.348164170980453 0.000000000000000
4.315962791442871 -2.573953390121460 0.385786861181259 0.000000000000000
4.322846889495850 -12.543076515197754 1.966212391853333 0.000000000000000
4.326532363891602 -12.749937057495117 1.137704968452454 0.000000000000000
4.331126689910889 -12.634349822998047 0.459403753280640 0.000000000000000
4.333741664886475 -13.940604209899902 1.464863538742065 0.000000000000000
4.349828720092773 -13.361997604370117 2.401984691619873 0.000000000000000
4.369874000549316 -3.397202491760254 0.526140511035919 0.000000000000000
4.380647659301758 -12.556921958923340 2.273258924484253 0.000000000000000
4.392204761505127 -7.632727146148682 1.078150987625122 0.000000000000000
4.392778873443604 -13.289532661437988 1.101565837860107 0.000000000000000
4.393690109252930 -4.581857681274414 1.700958847999573 0.000000000000000
4.405335903167725 -2.458427429199219 0.439595729112625 0.000000000000000
4.423875808715820 -12.881458282470703 1.812448740005493 0.000000000000000
4.425203800201416 -2.687499046325684 1.387270092964172 0.000000000000000
4.429956912994385 -12.777083396911621 0.673227429389954 0.000000000000000
4.431943416595459 -1.907687664031982 0.379742056131363 0.000000000000000
4.447633266448975 -2.419694662094116 0.459008663892746 0.000000000000000
4.457172393798828 -2.133032560348511 0.430567711591721 0.000000000000000
4.457204341888428 -3.716371297836304 1.554984927177429 0.000000000000000
4.459174633026123 -13.334027290344238 0.889500677585602 0.000000000000000
4.460541248321533 -13.229784011840820 2.386483669281006 0.000000000000000
4.461124897003174 -0.831573069095612 0.357145816087723 0.000000000000000
4.477619171142578 -0.914970517158508 0.486794441938400 0.000000000000000
4.477852344512939 -12.981069564819336 1.244848847389221 0.000000000000000
4.489815235137939 -13.583098411560059 0.244715347886086 0.000000000000000
4.500640392303467 -0.583652496337891 0.483405083417892 0.000000000000000
4.505439758300781 -13.753511428833008 0.748349070549011 0.000000000000000
4.510751247406006 -3.583131074905396 1.198228120803833 0.000000000000000
4.511473655700684 -1.003391981124878 0.363736391067505 0.000000000000000
4.515980243682861 -2.416173219680786 0.875470817089081 0.000000000000000
4.517754077911377 -3.645889043807983 0.412062346935272 0.000000000000000
4.518187999725342 -5.585075855255127 1.227950692176819 0.000000000000000
4.526252269744873 -3.914130449295044 1.244658470153809 0.000000000000000
4.526306152343750 -1.953269958496094 0.468605697154999 0.000000000000000
4.536864757537842 -2.530167102813721 0.470926284790039 0.000000000000000
4.545285224914551 -2.411482095718384 0.879514634609222 0.000000000000000
4.547558307647705 -2.253273963928223 0.460092097520828 0.000000000000000
4.563010692596436 -3.835882902145386 0.566641926765442 0.000000000000000
4.568688392639160 -12.698365211486816 1.652225017547607 0.000000000000000
4.569163322448730 -0.573817074298859 0.371322780847549 0.000000000000000
4.572700500488281 -1.435101151466370 0.266270309686661 0.000000000000000
4.578504085540771 -12.557506561279297 2.284716129302979 0.000000000000000
4.578716278076172 -1.837012767791748 0.378744721412659 0.000000000000000
4.583194732666016 -2.133090257644653 0.458286404609680 0.000000000000000
4.585339069366455 -2.432732582092285 0.470565170049667 0.000000000000000
4.586968898773193 -0.559796094894409 0.372608751058578 0.000000000000000
4.590928077697754 -4.268543720245361 0.834201335906982 0.000000000000000
4.601025104522705 -2.546611785888672 0.373263359069824 0.000000000000000
4.603968620300293 -1.818379998207092 1.029612779617310 0.000000000000000
4.612794399261475 -14.174829483032227 1.058051466941833 0.000000000000000
4.617809295654297 -12.504350662231445 3.571702957153320 0.000000000000000
4.618379116058350 -6.240469932556152 1.033122181892395 0.000000000000000
4.619986057281494 -4.076076030731201 0.618213951587677 0.000000000000000
4.623793125152588 -3.398253440856934 0.500014126300812 0.000000000000000
4.628157615661621 -3.623985052108765 1.222665190696716 0.000000000000000
4.634500503540039 -2.967192888259888 0.433094263076782 0.000000000000000
4.637287616729736 -14.082845687866211 1.052387356758118 0.000000000000000
4.641167163848877 -2.337512493133545 0.493966430425644 0.000000000000000
4.645672798156738 -1.950762510299683 0.367361187934875 0.000000000000000
4.652166843414307 -1.216481924057007 0.267157882452011 0.000000000000000
4.661602973937988 -3.676494359970093 1.234883666038513 0.000000000000000
4.671311855316162 -1.423796057701111 0.490018427371979 0.000000000000000
4.671686172485352 -2.577951908111572 1.429716467857361 0.000000000000000
4.672293186187744 -1.826537728309631 1.043460369110107 0.000000000000000
4.673091888427734 -4.816196918487549 0.994541108608246 0.000000000000000
4.683725357055664 -0.675853013992310 0.474842578172684 0.000000000000000
4.687983989715576 -2.943960189819336 0.946236371994019 0.000000000000000
4.698355674743652 -2.124746322631836 0.449318230152130 0.000000000000000
4.701077461242676 -2.168022394180298 0.884906291961670 0.000000000000000
4.709002494812012 -10.620463371276855 0.578359067440033 0.000000000000000
4.711252689361572 -2.254625797271729 0.774053215980530 0.000000000000000
4.715943813323975 -5.871324062347412 1.287258982658386 0.000000000000000
4.719531059265137 -12.643804550170898 3.616219997406006 0.000000000000000
4.721177577972412 -1.960790634155273 0.757633864879608 0.000000000000000
4.721973419189453 -1.586551070213318 1.036129355430603 0.000000000000000
4.729784965515137 -0.987328231334686 0.484826713800430 0.000000000000000
4.729804992675781 -4.003224849700928 0.539945781230927 0.000000000000000
4.731200218200684 -2.119738340377808 0.451748877763748 0.000000000000000
4.738054752349854 -13.932285308837891 0.053936839103699 0.000000000000000
4.745498657226562 -13.728198051452637 1.115107774734497 0.000000000000000
4.746555328369141 -2.471005439758301 1.433857560157776 0.000000000000000
4.765164852142334 -6.755552291870117 1.719551086425781 0.000000000000000
4.768088340759277 -2.604938268661499 0.578730404376984 0.000000000000000
4.770822525024414 -0.995894670486450 0.374152004718781 0.000000000000000
4.778131484985352 -5.122304439544678 1.876955747604370 0.000000000000000
4.784564495086670 -13.342224121093750 1.735346674919128 0.000000000000000
4.786948680877686 -1.589807987213135 1.049162387847900 0.000000000000000
4.787877082824707 -1.234128952026367 0.274702191352844 0.000000000000000
4.806790351867676 -1.163950681686401 0.470119774341583 0.000000000000000
4.816404342651367 -2.053277969360352 0.412067204713821 0.000000000000000
4.820746898651123 -13.857312202453613 0.053775571286678 0.000000000000000
4.827813148498535 -13.656797409057617 3.881250381469727 0.000000000000000
4.828606605529785 -13.985224723815918 3.077434301376343 0.000000000000000
4.828698158264160 -1.453364968299866 0.505992949008942 0.000000000000000
4.849767684936523 -0.841536343097687 0.729486525058746 0.000000000000000
4.851056098937988 -0.810395836830139 0.728900074958801 0.000000000000000
4.865703105926514 -1.236092686653137 0.278918147087097 0.000000000000000
4.868972778320312 -2.624083757400513 0.525761961936951 0.000000000000000
4.870159626007080 -13.931148529052734 1.480838060379028 0.000000000000000
4.878418445587158 -1.929335951805115 0.382486134767532 0.000000000000000
4.884087085723877 -13.314704895019531 0.979282081127167 0.000000000000000
4.892231464385986 -0.944840669631958 0.305623948574066 0.000000000000000
4.893397808074951 -2.314248323440552 1.450421929359436 0.000000000000000
4.896260261535645 -2.381087779998779 0.806891798973083 0.000000000000000
4.919497966766357 -13.222482681274414 1.164846301078796 0.000000000000000
4.919735431671143 -1.673665046691895 0.888276100158691 0.000000000000000
4.937318325042725 -2.286382675170898 0.618001580238342 0.000000000000000
4.965460777282715 -2.288267850875854 0.519705653190613 0.000000000000000
4.981392383575439 -2.285709142684937 0.622515797615051 0.000000000000000
4.984427928924561 -13.386986732482910 2.441748142242432 0.000000000000000
4.984623432159424 -12.952944755554199 2.886825561523438 0.000000000000000
4.990078449249268 -8.952897071838379 1.363953351974487 0.000000000000000
4.999527454376221 -2.365828514099121 0.481958031654358 0.000000000000000
5.000726699829102 -1.251828432083130 0.365900039672852 0.000000000000000
5.001268863677979 -3.230638980865479 1.595360755920410 0.000000000000000
5.001450538635254 -1.999829888343811 0.382325887680054 1.000000000000000
5.012131690979004 -2.306488990783691 1.478374481201172 0.000000000000000
5.014526844024658 -1.725465416908264 0.906472921371460 0.000000000000000
5.017270088195801 -9.227601051330566 1.397722482681274 0.000000000000000
5.019247531890869 -0.939417362213135 0.313215583562851 0.000000000000000
5.023902893066406 -1.234174847602844 1.076043128967285 0.000000000000000
5.030878543853760 -0.973257243633270 0.403279781341553 0.000000000000000
5.031214237213135 -13.573464393615723 1.772289633750916 0.000000000000000
5.044349193572998 -13.986702919006348 1.084050059318542 0.000000000000000
5.045347690582275 -14.098089218139648 1.178455710411072 0.000000000000000
5.049434661865234 -1.757213473320007 0.913886427879333 0.000000000000000
5.054067134857178 -4.335073471069336 0.668134331703186 0.000000000000000
5.058364391326904 -2.479271411895752 1.509432673454285 0.000000000000000
5.070534229278564 -0.871368288993835 0.394972264766693 0.000000000000000
5.073576450347900 -9.072145462036133 1.540483117103577 0.000000000000000
5.088937759399414 -4.183224678039551 1.765145897865295 0.000000000000000
5.096865177154541 -7.331243515014648 1.857213020324707 0.000000000000000
5.102115154266357 -12.537364006042480 0.934644043445587 0.000000000000000
5.103178977966309 -7.288636207580566 1.850696325302124 0.000000000000000
5.104725837707520 -5.349448680877686 0.567657828330994 1.000000000000000
5.112681388854980 -2.374420881271362 1.510468006134033 0.000000000000000
5.117720603942871 -5.423960208892822 0.529308974742889 0.000000000000000
5.128992557525635 -1.647529482841492 0.309675306081772 0.000000000000000
5.137503623962402 -2.379084825515747 0.456518054008484 0.000000000000000
5.154495239257812 -4.039897441864014 1.119443535804749 0.000000000000000
5.155435562133789 -9.176367759704590 1.288628578186035 0.000000000000000
5.157849788665771 -2.402295827865601 0.843248844146729 0.000000000000000
5.160337924957275 -2.418487071990967 1.527032375335693 0.000000000000000
5.164238929748535 -4.189684391021729 0.632125616073608 0.000000000000000
5.165101051330566 -2.057636737823486 1.489762425422668 0.000000000000000
5.165325164794922 -2.753278255462646 0.280130267143250 0.000000000000000
5.172647953033447 -6.146199703216553 1.069001793861389 0.000000000000000
5.174868583679199 -2.266332149505615 0.346520781517029 0.000000000000000
5.175886631011963 -4.598761081695557 1.855214953422546 0.000000000000000
5.181015014648438 -2.765358448028564 1.573619842529297 0.000000000000000
5.191752433776855 -5.275424480438232 0.670997738838196 0.000000000000000
5.193802833557129 -4.196260929107666 0.888548433780670 0.000000000000000
5.198013305664062 -6.218077182769775 1.078499317169189 0.000000000000000
5.209926128387451 -3.114496231079102 1.626418948173523 0.000000000000000
5.229766368865967 -4.712374210357666 1.886273384094238 0.000000000000000
5.248919010162354 -4.381310939788818 0.649915993213654 0.000000000000000
5.252131938934326 -4.192571163177490 0.321623951196671 0.000000000000000
5.256777286529541 -2.422517299652100 1.203930139541626 0.000000000000000
5.261365890502930 -0.675116479396820 0.192653208971024 0.000000000000000
5.264231204986572 -1.672339797019958 0.306876510381699 0.000000000000000
5.265800952911377 -4.729047298431396 0.941840171813965 0.000000000000000
5.268923282623291 -9.150367736816406 1.405109405517578 0.000000000000000
5.269515514373779 -6.266180992126465 0.929936647415161 0.000000000000000
5.274547576904297 -5.617018699645996 0.773166775703430 0.000000000000000
5.275425434112549 -3.090867042541504 0.516648709774017 0.000000000000000
5.276797294616699 -4.855834484100342 1.921472668647766 0.000000000000000
5.286876201629639 -6.965706348419189 1.818928241729736 0.000000000000000
5.297208786010742 -5.303128719329834 1.559081315994263 0.000000000000000
5.298104286193848 -5.268965244293213 1.554193973541260 0.000000000000000
5.303770542144775 -4.745616912841797 1.906978845596313 0.000000000000000
5.308491230010986 -7.096521854400635 1.843365192413330 0.000000000000000
5.311565876007080 -6.996208190917969 1.301816701889038 0.000000000000000
5.313753128051758 -5.502744197845459 0.767575681209564 0.000000000000000
5.315343379974365 -7.288086414337158 1.200384497642517 0.000000000000000
5.320013523101807 -3.907652854919434 0.598408639431000 0.000000000000000
5.323362827301025 -2.008134365081787 0.458768486976624 0.000000000000000
5.328049182891846 -7.174746990203857 1.858842015266418 0.000000000000000
5.337872505187988 -3.102477312088013 0.521700680255890 0.000000000000000
5.340595245361328 -2.353701829910278 0.864945769309998 0.000000000000000
5.348224163055420 -2.906508207321167 0.455545425415039 0.000000000000000
5.349267005920410 -6.244183540344238 1.218547344207764 0.000000000000000
5.360461235046387 -5.189932823181152 0.529592156410217 0.000000000000000
5.365358352661133 -4.937330722808838 0.731633007526398 0.000000000000000
5.377068519592285 -1.112754464149475 0.672264516353607 0.000000000000000
5.378227710723877 -4.580630302429199 0.708869338035583 0.000000000000000
5.381907939910889 -1.275105714797974 0.435291111469269 0.000000000000000
5.381941795349121 -2.272203683853149 0.459770321846008 0.000000000000000
5.389836311340332 -3.455035209655762 1.715452671051025 0.000000000000000
5.390658855438232 -3.411520957946777 1.090463280677795 0.000000000000000
