# This PCD file was generated using the MATLAB® pcwrite function
# from Computer Vision Toolbox®.
# .PCD v.7 - Point Cloud Data file format
VERSION .7
FIELDS x y z intensity
SIZE 8 8 8 8
TYPE F F F F
COUNT 1 1 1 1
WIDTH 642
HEIGHT 1
VIEWPOINT 0 0 0 1 0 0 0
POINTS 642
DATA ascii
-3.403199911117554 -3.812694549560547 1.063009977340698 1.000000000000000
-3.402727603912354 -8.166090965270996 0.406366765499115 0.000000000000000
-3.402675628662109 -10.006171226501465 0.811377108097076 1.000000000000000
-3.402283668518066 -3.362847089767456 0.708962380886078 0.000000000000000
-3.401735782623291 -2.273739576339722 1.096357464790344 0.000000000000000
-3.399484872817993 -1.924041390419006 1.046664237976074 0.000000000000000
-3.396297216415405 -5.395108699798584 1.708205819129944 0.000000000000000
-3.395866632461548 -0.498914510011673 0.283394366502762 0.000000000000000
-3.390231847763062 -1.493716359138489 0.770580470561981 0.000000000000000
-3.390112161636353 6.869027137756348 1.593293190002441 1.000000000000000
-3.389952898025513 -2.531306266784668 1.133627414703369 0.000000000000000
-3.388352870941162 -3.515613079071045 0.723622500896454 0.000000000000000
-3.385024785995483 -2.789209127426147 0.912315070629120 1.000000000000000
-3.383911609649658 -10.248801231384277 2.244946718215942 0.000000000000000
-3.381285667419434 -9.213880538940430 1.201618194580078 0.000000000000000
-3.377821445465088 -8.957106590270996 0.909958064556122 1.000000000000000
-3.376082420349121 -7.754833698272705 0.714686214923859 0.000000000000000
-3.373920440673828 -8.961443901062012 0.292558997869492 0.000000000000000
-3.373849153518677 -10.623497009277344 0.190668627619743 1.000000000000000
-3.371708393096924 -5.224255561828613 1.062831044197083 0.000000000000000
-3.371321678161621 -9.215559005737305 0.545188426971436 0.000000000000000
-3.369583368301392 -10.893443107604980 1.295139908790588 0.000000000000000
-3.369299173355103 -1.198560833930969 0.611279547214508 1.000000000000000
-3.369002580642700 -9.019442558288574 1.178771972656250 0.000000000000000
-3.368243932723999 9.627884864807129 1.743528246879578 1.000000000000000
-3.365309715270996 -9.224067687988281 0.855579733848572 1.000000000000000
-3.364571332931519 -2.932621955871582 0.661463618278503 0.000000000000000
-3.364401340484619 -12.649681091308594 0.525726497173309 0.000000000000000
-3.359691381454468 -10.669861793518066 0.815582573413849 0.000000000000000
-3.357118606567383 -1.799241542816162 0.382190376520157 0.000000000000000
-3.355968952178955 -3.176467895507812 0.256728947162628 0.000000000000000
-3.355537414550781 -0.461799532175064 0.295147210359573 1.000000000000000
-3.354529142379761 -4.267137050628662 1.128989934921265 0.000000000000000
-3.353914022445679 -4.030925273895264 1.090705394744873 0.000000000000000
-3.353107213973999 -2.123515844345093 0.345843106508255 0.000000000000000
-3.351800203323364 -6.041336536407471 0.656729340553284 0.000000000000000
-3.347355365753174 -1.915419578552246 0.386982738971710 0.000000000000000
-3.346440076828003 -10.456791877746582 1.461039423942566 0.000000000000000
-3.340277194976807 -1.144544601440430 0.189373940229416 0.000000000000000
-3.339712142944336 -9.108457565307617 0.819767236709595 1.000000000000000
-3.338359117507935 -4.064474105834961 0.899059414863586 0.000000000000000
-3.337984085083008 -0.041307996958494 0.894478619098663 1.000000000000000
-3.337795495986938 -3.510915994644165 1.007619500160217 0.000000000000000
-3.337408065795898 -3.661083221435547 1.030427336692810 0.000000000000000
-3.335685729980469 -5.713835239410400 0.456851363182068 0.000000000000000
-3.330239534378052 -4.436914920806885 0.425896435976028 0.000000000000000
-3.329744338989258 -9.329879760742188 0.994014501571655 0.000000000000000
-3.329536199569702 -1.600394248962402 0.269340038299561 0.000000000000000
-3.326547384262085 -5.761519908905029 0.203264355659485 0.000000000000000
-3.326241731643677 -6.230545043945312 0.596806764602661 0.000000000000000
-3.325066089630127 -1.851392388343811 1.019747138023376 0.000000000000000
-3.323285818099976 -4.232104301452637 0.539938807487488 0.000000000000000
-3.322031497955322 -1.138292789459229 0.242478415369987 0.000000000000000
-3.320216894149780 -10.374850273132324 0.920469939708710 0.000000000000000
-3.319122552871704 -10.730310440063477 0.041167337447405 0.000000000000000
-3.315869092941284 -12.703453063964844 0.426360726356506 0.000000000000000
-3.314773082733154 -3.713368654251099 0.737696111202240 0.000000000000000
-3.314367532730103 -10.806395530700684 1.134190917015076 1.000000000000000
-3.313165426254272 -2.492028951644897 1.110851407051086 0.000000000000000
-3.309037446975708 -4.410269260406494 0.338194459676743 0.000000000000000
-3.308851957321167 -1.888025283813477 1.020782351493835 0.000000000000000
-3.308806896209717 -7.973990440368652 0.729505300521851 0.000000000000000
-3.308619737625122 -5.686147689819336 0.264227718114853 1.000000000000000
-3.307804822921753 -2.096686601638794 0.392973184585571 0.000000000000000
-3.303763151168823 -10.650361061096191 0.447870820760727 1.000000000000000
-3.295831441879272 -10.298651695251465 0.247273489832878 1.000000000000000
-3.294084548950195 -7.066765785217285 0.223232045769691 0.000000000000000
-3.290753841400146 -4.130974292755127 0.529954671859741 0.000000000000000
-3.290629625320435 -4.982172012329102 0.884883522987366 0.000000000000000
-3.287906646728516 -10.441884994506836 0.124198473989964 1.000000000000000
-3.285293102264404 -10.648584365844727 0.426155924797058 0.000000000000000
-3.284861803054810 -4.025630474090576 0.048970419913530 0.000000000000000
-3.281673192977905 8.016678810119629 1.480684757232666 1.000000000000000
-3.280380964279175 -12.390352249145508 0.416233986616135 1.000000000000000
-3.276578426361084 -5.842138290405273 0.153174206614494 0.000000000000000
-3.274062395095825 -4.613701820373535 0.172848001122475 0.000000000000000
-3.268705844879150 -12.396081924438477 0.071600019931793 1.000000000000000
-3.267309427261353 -1.972678542137146 0.652390897274017 1.000000000000000
-3.266184091567993 -10.942944526672363 0.019931649789214 0.000000000000000
-3.265293359756470 -4.037774562835693 1.080115914344788 0.000000000000000
-3.263424634933472 -12.629640579223633 0.549005270004272 1.000000000000000
-3.262773513793945 -3.409291028976440 0.981553316116333 0.000000000000000
-3.257797241210938 -1.997084140777588 1.023888111114502 0.000000000000000
-3.256648302078247 -11.845799446105957 0.257340461015701 0.000000000000000
-3.249226570129395 -1.229465723037720 0.514862656593323 0.000000000000000
-3.248760461807251 -5.448981761932373 0.552793383598328 1.000000000000000
-3.247273445129395 -4.497822761535645 0.948258280754089 0.000000000000000
-3.246546745300293 -9.187326431274414 0.926234304904938 1.000000000000000
-3.246456384658813 -3.985659360885620 0.447929322719574 0.000000000000000
-3.245562076568604 -1.547915577888489 0.341802060604095 0.000000000000000
-3.242312669754028 -3.314642190933228 0.792574048042297 0.000000000000000
-3.240671873092651 -2.536083936691284 0.609860122203827 0.000000000000000
-3.233941078186035 -1.256896853446960 0.929678082466125 0.000000000000000
-3.233741283416748 -4.301933288574219 0.154087349772453 0.000000000000000
-3.232688665390015 -9.316511154174805 0.225509017705917 0.000000000000000
-3.232066631317139 -10.868075370788574 0.761052489280701 0.000000000000000
-3.230119705200195 -11.054742813110352 0.662048578262329 1.000000000000000
-3.228994846343994 -9.063568115234375 1.024852752685547 1.000000000000000
-3.228231668472290 -1.478613257408142 0.951418817043304 0.000000000000000
-3.227620601654053 -5.271954059600830 0.822593152523041 0.000000000000000
-3.225350856781006 -11.049883842468262 0.152696475386620 1.000000000000000
-3.225158452987671 -10.783513069152832 1.129398584365845 1.000000000000000
-3.221935749053955 -11.893147468566895 0.803296744823456 0.000000000000000
-3.219890356063843 -2.215288162231445 0.812937915325165 0.000000000000000
-3.219710350036621 -10.497768402099609 0.504379391670227 1.000000000000000
-3.216332912445068 -12.643985748291016 0.373541653156281 1.000000000000000
-3.215356349945068 -3.864398479461670 0.298666924238205 0.000000000000000
-3.212450027465820 -2.194509029388428 0.369812399148941 0.000000000000000
-3.207851886749268 -12.694081306457520 0.274261951446533 1.000000000000000
-3.207469224929810 -4.076844692230225 0.768775582313538 0.000000000000000
-3.207250118255615 -4.592531204223633 0.268083691596985 0.000000000000000
-3.207014799118042 -5.015826702117920 0.518764674663544 0.000000000000000
-3.206616640090942 -12.674284934997559 0.248743981122971 0.000000000000000
-3.206281185150146 -3.964801788330078 0.302936971187592 0.000000000000000
-3.205892562866211 -10.521460533142090 1.463677763938904 0.000000000000000
-3.205371618270874 -10.471876144409180 0.524120867252350 1.000000000000000
-3.203038692474365 -2.300938367843628 0.357528388500214 1.000000000000000
-3.197604894638062 -3.147988557815552 0.509659469127655 0.000000000000000
-3.193534851074219 -2.082792997360229 0.651716947555542 0.000000000000000
-3.192434310913086 -9.146345138549805 0.295979291200638 0.000000000000000
-3.192066907882690 -2.426952600479126 0.284620374441147 0.000000000000000
-3.190804004669189 -10.654421806335449 2.313370466232300 0.000000000000000
-3.189822196960449 -4.052376270294189 0.881536483764648 0.000000000000000
-3.189233779907227 -10.511515617370605 1.877645730972290 1.000000000000000
-3.188275575637817 -4.046632289886475 0.763497889041901 0.000000000000000
-3.185519456863403 -6.212212562561035 0.562931776046753 0.000000000000000
-3.185346603393555 -4.290323734283447 0.070883423089981 0.000000000000000
-3.181171417236328 -7.327383518218994 1.365437984466553 0.000000000000000
-3.180379390716553 -5.235745906829834 0.815206229686737 0.000000000000000
-3.180056810379028 -1.474244475364685 0.599148273468018 0.000000000000000
-3.177240133285522 -2.433228254318237 0.284053951501846 0.000000000000000
-3.176361083984375 -1.474283456802368 0.208046779036522 0.000000000000000
-3.175091743469238 -10.687418937683105 0.254955053329468 1.000000000000000
-3.175077199935913 -12.391249656677246 0.464574426412582 1.000000000000000
-3.173838853836060 -1.706936597824097 0.615997195243835 1.000000000000000
-3.173408508300781 -3.950877428054810 1.054049730300903 0.000000000000000
-3.169995307922363 -3.023179769515991 0.748766839504242 0.000000000000000
-3.167832136154175 -6.478366374969482 1.232668399810791 0.000000000000000
-3.157645463943481 -4.149357318878174 0.319827646017075 0.000000000000000
-3.156906127929688 -1.576865315437317 0.603192031383514 0.000000000000000
-3.156659364700317 -1.490260124206543 0.093237675726414 0.000000000000000
-3.156164884567261 -10.674186706542969 0.147656112909317 1.000000000000000
-3.155523061752319 5.962511062622070 1.807592272758484 1.000000000000000
-3.153072357177734 -3.926681518554688 0.202264249324799 0.000000000000000
-3.149127721786499 -10.511254310607910 1.875623941421509 1.000000000000000
-3.147734403610229 -4.773066520690918 0.847353696823120 0.000000000000000
-3.147692203521729 -6.458875179290771 0.205716922879219 0.000000000000000
-3.146391868591309 -7.158853530883789 0.058687891811132 1.000000000000000
-3.141394376754761 -10.573991775512695 1.467898726463318 0.000000000000000
-3.134624481201172 -5.331320762634277 0.538904130458832 0.000000000000000
-3.133265495300293 -5.383272171020508 0.625003099441528 1.000000000000000
-3.130714654922485 -4.034929752349854 0.462981224060059 0.000000000000000
-3.130459785461426 -3.862487554550171 0.046859301626682 0.000000000000000
-3.130374670028687 -6.417935371398926 0.218167155981064 0.000000000000000
-3.129860639572144 -12.039842605590820 0.834987938404083 0.000000000000000
-3.128571271896362 -4.959635257720947 0.869050681591034 1.000000000000000
-3.127093315124512 -12.043004035949707 0.859145045280457 0.000000000000000
-3.121223449707031 -4.799291610717773 0.978586316108704 0.000000000000000
-3.119727849960327 -3.467484474182129 0.797291815280914 0.000000000000000
-3.116714000701904 -4.143388271331787 0.398034065961838 0.000000000000000
-3.116480827331543 -1.977855920791626 0.393163830041885 0.000000000000000
-3.116086721420288 -4.495337009429932 0.261773616075516 0.000000000000000
-3.110633850097656 -2.404865026473999 0.817825376987457 0.000000000000000
-3.107684612274170 -1.776043415069580 0.744514286518097 0.000000000000000
-3.103150367736816 -12.041465759277344 0.571189463138580 0.000000000000000
-3.102594614028931 -4.329188346862793 0.482843875885010 0.000000000000000
-3.099788904190063 -1.697718501091003 0.354634344577789 0.000000000000000
-3.098778724670410 -3.283289670944214 0.669086873531342 1.000000000000000
-3.097674608230591 -2.869885206222534 0.561938285827637 0.000000000000000
-3.092089176177979 -11.966562271118164 0.710485517978668 1.000000000000000
-3.091900825500488 -4.444026470184326 0.490788996219635 0.000000000000000
-3.090885877609253 -6.336134910583496 0.174756601452827 0.000000000000000
-3.090537786483765 -2.883385181427002 0.562465906143188 0.000000000000000
-3.088324546813965 -6.619616508483887 0.223175480961800 0.000000000000000
-3.084481477737427 -1.554167032241821 0.590386807918549 1.000000000000000
-3.083727121353149 -4.677783012390137 0.488208204507828 0.000000000000000
-3.083454847335815 -3.945506572723389 0.453952729701996 0.000000000000000
-3.082555055618286 -2.399531126022339 0.371326476335526 0.000000000000000
-3.081436395645142 -3.863921165466309 0.369869470596313 0.000000000000000
-3.081105947494507 -1.775151371955872 0.739626884460449 0.000000000000000
-3.074265718460083 -4.655646800994873 0.953649938106537 0.000000000000000
-3.071419477462769 -6.853084564208984 0.460639953613281 0.000000000000000
-3.069117546081543 -6.578447818756104 0.110234245657921 0.000000000000000
-3.057296037673950 -12.408740997314453 1.282354593276978 0.000000000000000
-3.052181243896484 -3.443562030792236 0.957116305828094 0.000000000000000
-3.051970243453979 -12.139643669128418 1.033517122268677 1.000000000000000
-3.051896095275879 -9.494728088378906 0.784904897212982 1.000000000000000
-3.047239065170288 -4.757881164550781 0.965781211853027 0.000000000000000
-3.044014215469360 -2.063122749328613 0.764878511428833 0.000000000000000
-3.043416261672974 -9.455879211425781 2.661695241928101 1.000000000000000
-3.041114330291748 -12.132277488708496 1.188925981521606 0.000000000000000
-3.040114164352417 -9.445618629455566 0.761775970458984 1.000000000000000
-3.032141923904419 -12.163067817687988 1.010769486427307 1.000000000000000
-3.031653404235840 -4.613848209381104 0.189894214272499 0.000000000000000
-3.029210805892944 -1.272616505622864 0.683421790599823 0.000000000000000
-3.027305364608765 -1.884991884231567 0.955559968948364 0.000000000000000
-3.026578903198242 -10.585612297058105 0.760224878787994 1.000000000000000
-3.024307012557983 -1.239865541458130 0.558710813522339 0.000000000000000
-3.023676156997681 -2.080136060714722 0.319800704717636 0.000000000000000
-3.018050670623779 -7.130139827728271 0.519690930843353 0.000000000000000
-3.012738227844238 -12.836814880371094 0.250874578952789 0.000000000000000
-3.009654521942139 -4.745935440063477 0.563900530338287 0.000000000000000
-3.009455442428589 -10.525721549987793 1.456818342208862 0.000000000000000
-3.009119987487793 -8.277377128601074 1.000358939170837 1.000000000000000
-3.007709741592407 -12.841582298278809 0.276272416114807 0.000000000000000
-3.007475614547729 -12.439961433410645 0.982531726360321 0.000000000000000
-3.005881309509277 -3.274372816085815 0.924533665180206 0.000000000000000
-3.002504348754883 -5.784510135650635 0.186599105596542 0.000000000000000
-2.994674205780029 -10.521251678466797 0.991689860820770 0.000000000000000
-2.993772506713867 9.730198860168457 1.740158319473267 1.000000000000000
-2.992421150207520 -11.691983222961426 0.275987923145294 0.000000000000000
-2.992332696914673 -5.477404117584229 1.066874861717224 0.000000000000000
-2.991856098175049 -5.051304340362549 1.003522753715515 0.000000000000000
-2.991022825241089 -4.571805953979492 0.476055115461349 0.000000000000000
-2.989008903503418 -5.559557914733887 0.448029279708862 0.000000000000000
-2.987529993057251 -1.277927637100220 0.870667278766632 0.000000000000000
-2.986515283584595 -4.028538703918457 0.503197371959686 0.000000000000000
-2.985344886779785 -2.226666450500488 0.774653255939484 0.000000000000000
-2.981995344161987 -1.312047004699707 0.199831053614616 0.000000000000000
-2.981199026107788 -0.441714376211166 0.248834073543549 0.000000000000000
-2.980312585830688 -1.305227160453796 0.346560359001160 0.000000000000000
-2.980243921279907 -5.154036045074463 1.017675995826721 0.000000000000000
-2.978408336639404 -6.438781261444092 0.284935742616653 0.000000000000000
-2.976184129714966 -12.722987174987793 0.499678492546082 0.000000000000000
-2.975738286972046 -1.315622568130493 0.346560359001160 0.000000000000000
-2.973735094070435 -1.360101461410522 0.680163502693176 0.000000000000000
-2.973382711410522 -3.124106645584106 0.639180302619934 0.000000000000000
-2.973093748092651 -5.569046020507812 0.435910016298294 1.000000000000000
-2.972157716751099 -9.217376708984375 2.014424324035645 0.000000000000000
-2.971960306167603 -4.838609695434570 0.446903049945831 0.000000000000000
-2.970191001892090 -5.022119998931885 0.585466146469116 0.000000000000000
-2.968368530273438 -1.969119548797607 0.357429891824722 1.000000000000000
-2.968109130859375 -5.058818340301514 0.179200023412704 0.000000000000000
-2.959550619125366 -9.541893005371094 0.439681172370911 1.000000000000000
-2.959390163421631 -8.979377746582031 2.533320903778076 1.000000000000000
-2.958182573318481 -5.992272853851318 0.582308113574982 0.000000000000000
-2.957118749618530 -12.328663825988770 0.924365758895874 0.000000000000000
-2.955532789230347 -9.505482673645020 0.438098371028900 1.000000000000000
-2.953724861145020 -10.512436866760254 0.102917045354843 0.000000000000000
-2.953512430191040 -6.148475170135498 1.165946602821350 0.000000000000000
-2.953117370605469 -1.564849495887756 0.895513951778412 0.000000000000000
-2.952329874038696 -2.926882266998291 0.472191095352173 0.000000000000000
-2.950832605361938 -3.191969156265259 0.904169440269470 0.000000000000000
-2.950307369232178 -5.029883861541748 0.234209164977074 0.000000000000000
-2.948163270950317 -1.910027265548706 0.730666637420654 0.000000000000000
-2.944575786590576 -12.392647743225098 0.879535317420959 0.000000000000000
-2.943454742431641 -5.139352798461914 0.454677343368530 0.000000000000000
-2.941934347152710 -2.258078098297119 0.771395027637482 0.000000000000000
-2.940925121307373 -1.719846129417419 0.341854751110077 0.000000000000000
-2.938914299011230 -4.563100814819336 0.217995896935463 0.000000000000000
-2.935701608657837 -3.457866668701172 1.215414285659790 0.000000000000000
-2.934884071350098 -3.107028007507324 0.730570018291473 0.000000000000000
-2.934578895568848 -9.281309127807617 1.295360088348389 1.000000000000000
-2.933003902435303 -5.978814125061035 0.408478200435638 0.000000000000000
-2.932766914367676 -11.737379074096680 0.206951051950455 0.000000000000000
-2.932225465774536 -5.126382827758789 0.464791715145111 0.000000000000000
-2.928771734237671 -6.207638740539551 0.622243821620941 0.000000000000000
-2.927506446838379 -6.727025032043457 0.478282928466797 0.000000000000000
-2.918207883834839 -6.021041870117188 1.143705964088440 1.000000000000000
-2.917353630065918 -5.999787807464600 0.409212857484818 0.000000000000000
-2.915634632110596 -1.345854997634888 0.667945027351379 0.000000000000000
-2.911524057388306 -12.082771301269531 0.618732750415802 1.000000000000000
-2.910244226455688 -9.134411811828613 1.994060277938843 1.000000000000000
-2.904427528381348 -12.022911071777344 0.758672297000885 0.000000000000000
-2.903762578964233 -9.437660217285156 1.208909630775452 1.000000000000000
-2.901167869567871 -10.564306259155273 1.457873702049255 0.000000000000000
-2.899757385253906 -6.100278854370117 0.588558256626129 0.000000000000000
-2.898344755172729 -6.735057830810547 0.638906896114349 0.000000000000000
-2.894214153289795 -4.413066864013672 0.262727737426758 0.000000000000000
-2.893327713012695 -8.883115768432617 2.503298044204712 1.000000000000000
-2.891494274139404 -5.830241203308105 0.512181043624878 0.000000000000000
-2.889857769012451 -5.038224220275879 0.526541829109192 0.000000000000000
-2.889725446701050 -4.698834419250488 0.553517103195190 0.000000000000000
-2.889374494552612 -9.577322959899902 1.136238098144531 1.000000000000000
-2.888735294342041 -2.660239458084106 0.671261727809906 0.000000000000000
-2.887459278106689 -4.731531143188477 0.482999742031097 0.000000000000000
-2.887041091918945 -1.137352466583252 0.530404627323151 0.000000000000000
-2.886408805847168 -4.793552398681641 0.224738046526909 0.000000000000000
-2.886022090911865 -10.704984664916992 1.895168542861938 0.000000000000000
-2.884337663650513 -1.648400425910950 0.197371616959572 0.000000000000000
-2.883013010025024 -12.131669998168945 0.812924861907959 0.000000000000000
-2.878462791442871 7.866624355316162 1.742359042167664 1.000000000000000
-2.877094507217407 -6.625716686248779 0.596411824226379 0.000000000000000
-2.872278451919556 -5.053250312805176 0.861427426338196 0.000000000000000
-2.871998071670532 -5.149804592132568 0.202819675207138 0.000000000000000
-2.869891881942749 -3.018743991851807 0.395930171012878 0.000000000000000
-2.866378307342529 -4.074059963226318 0.161767795681953 0.000000000000000
-2.861696481704712 7.901901245117188 1.748060941696167 1.000000000000000
-2.858958959579468 -9.559103012084961 0.458309799432755 1.000000000000000
-2.856254100799561 -1.188826680183411 0.643507957458496 0.000000000000000
-2.855982780456543 -2.784702301025391 0.347579270601273 0.000000000000000
-2.854800462722778 -10.571557998657227 1.340640425682068 0.000000000000000
-2.853765964508057 -5.784829139709473 1.102594494819641 1.000000000000000
-2.851462125778198 -1.949441075325012 0.925536930561066 0.000000000000000
-2.851381778717041 -9.896996498107910 2.142311334609985 1.000000000000000
-2.850883722305298 -5.654086589813232 0.315233498811722 0.000000000000000
-2.849185943603516 -12.659320831298828 0.720926821231842 1.000000000000000
-2.848551988601685 -11.988518714904785 0.660880684852600 1.000000000000000
-2.846187114715576 -6.092005252838135 1.398611664772034 1.000000000000000
-2.843524932861328 -10.691258430480957 0.614640653133392 0.000000000000000
-2.840405702590942 -4.717153549194336 0.136494517326355 0.000000000000000
-2.840137720108032 -5.475907325744629 0.537515163421631 0.000000000000000
-2.838895797729492 -4.030211925506592 0.150615960359573 0.000000000000000
-2.837286233901978 -12.663181304931641 0.621066927909851 1.000000000000000
-2.834075689315796 -1.224007487297058 0.827185690402985 0.000000000000000
-2.831331491470337 -2.741453409194946 0.343412458896637 0.000000000000000
-2.829779386520386 -5.040132999420166 0.209929585456848 0.000000000000000
-2.829374790191650 -2.067682504653931 0.938995540142059 0.000000000000000
-2.825488805770874 -3.641548156738281 0.787856340408325 0.000000000000000
-2.822115182876587 -1.937846183776855 0.242989346385002 0.000000000000000
-2.821252584457397 -10.530529022216797 1.238260269165039 1.000000000000000
-2.820964336395264 -5.068691253662109 0.288781732320786 0.000000000000000
-2.820779085159302 -7.549337387084961 1.377569317817688 0.000000000000000
-2.818872451782227 -10.670515060424805 0.719506144523621 0.000000000000000
-2.817714214324951 -9.666511535644531 2.697929859161377 0.000000000000000
-2.816625833511353 -9.702476501464844 1.147523760795593 1.000000000000000
-2.815822362899780 -1.598245024681091 0.867561519145966 0.000000000000000
-2.812069654464722 -9.542911529541016 0.476125806570053 1.000000000000000
-2.811411857604980 -7.219089031219482 0.445344746112823 1.000000000000000
-2.809431314468384 -4.462856292724609 0.529155969619751 0.000000000000000
-2.808492660522461 -5.674573898315430 0.327389776706696 0.000000000000000
-2.806985855102539 -11.900358200073242 0.162193581461906 1.000000000000000
-2.803379297256470 -1.943179726600647 0.709487915039062 0.000000000000000
-2.803035259246826 -8.951066970825195 1.065364241600037 1.000000000000000
-2.802513837814331 -5.700733184814453 0.499941408634186 0.000000000000000
-2.802454710006714 -1.154974579811096 0.630474925041199 0.000000000000000
-2.798580884933472 -6.045042037963867 1.385578632354736 0.000000000000000
-2.797803163528442 -12.034259796142578 0.140171378850937 1.000000000000000
-2.797210931777954 -8.886764526367188 1.937855124473572 0.000000000000000
-2.791708230972290 -5.968335151672363 0.597325205802917 0.000000000000000
-2.785442590713501 -12.580948829650879 0.517539620399475 1.000000000000000
-2.783869981765747 -5.138367176055908 0.529792070388794 0.000000000000000
-2.782293796539307 -7.701960086822510 0.612866878509521 0.000000000000000
-2.777064085006714 -4.966120719909668 0.843248844146729 0.000000000000000
-2.772983789443970 -4.967980861663818 0.272290438413620 0.000000000000000
-2.772359132766724 -2.446229219436646 0.141389608383179 0.000000000000000
-2.771642446517944 -5.531466007232666 0.248496070504189 0.000000000000000
-2.771478414535522 -2.286987543106079 0.962806940078735 0.000000000000000
-2.770355463027954 -8.711633682250977 2.449463605880737 1.000000000000000
-2.769054412841797 -10.608547210693359 0.019135780632496 1.000000000000000
-2.768583059310913 -8.447518348693848 1.182972431182861 0.000000000000000
-2.764133930206299 -4.865557670593262 0.561504364013672 0.000000000000000
-2.761894226074219 -11.709190368652344 2.502349853515625 0.000000000000000
-2.759836673736572 -2.418097972869873 0.140319630503654 0.000000000000000
-2.759021759033203 -5.367555141448975 0.242396041750908 0.000000000000000
-2.758306980133057 -12.458386421203613 0.316306471824646 1.000000000000000
-2.756929159164429 -12.509043693542480 0.415974348783493 0.000000000000000
-2.756460905075073 -1.364064574241638 0.824079871177673 0.000000000000000
-2.754665613174438 -10.614809989929199 0.545940697193146 0.000000000000000
-2.746644020080566 -1.482503533363342 0.649209976196289 0.000000000000000
-2.746516227722168 -4.681137561798096 0.082417570054531 0.000000000000000
-2.746071577072144 -5.611873626708984 0.058885138481855 0.000000000000000
-2.742174863815308 -12.419403076171875 0.193137690424919 1.000000000000000
-2.732306003570557 -10.320213317871094 0.510927021503448 0.000000000000000
-2.732149362564087 -5.554417610168457 0.272426456212997 0.000000000000000
-2.731806039810181 9.720022201538086 1.236130833625793 0.000000000000000
-2.724755048751831 -10.633794784545898 0.567613363265991 1.000000000000000
-2.718123197555542 -10.242795944213867 0.629596471786499 1.000000000000000
-2.717460870742798 -5.521636486053467 0.152552694082260 0.000000000000000
-2.713968276977539 -5.285575866699219 0.467616260051727 0.000000000000000
-2.712881565093994 -5.316986560821533 0.567398965358734 0.000000000000000
-2.710865497589111 -10.519244194030762 0.331892609596252 1.000000000000000
-2.709178686141968 -2.586776971817017 0.326398104429245 0.000000000000000
-2.707723140716553 -10.523770332336426 1.157460808753967 0.000000000000000
-2.707055091857910 -1.473361492156982 0.641064286231995 0.000000000000000
-2.706353425979614 -5.781651020050049 0.060166891664267 0.000000000000000
-2.698796987533569 -12.641501426696777 0.593765377998352 0.000000000000000
-2.697436571121216 9.721375465393066 1.235158562660217 1.000000000000000
-2.695704460144043 -10.477058410644531 0.351319164037704 0.000000000000000
-2.690594911575317 -5.647544384002686 0.058960542082787 0.000000000000000
-2.684587717056274 -5.168493747711182 0.527986347675323 0.000000000000000
-2.682535886764526 -2.311501979827881 0.278686732053757 0.000000000000000
-2.680913686752319 -10.267203330993652 0.426199674606323 1.000000000000000
-2.679564952850342 -3.178592920303345 1.113957285881042 0.000000000000000
-2.677600145339966 -3.454181432723999 0.909056842327118 0.000000000000000
-2.674918174743652 -9.810812950134277 1.020372390747070 0.000000000000000
-2.673200130462646 -10.389594078063965 0.018723882734776 1.000000000000000
-2.671853065490723 -2.189145565032959 0.925536930561066 1.000000000000000
-2.669086694717407 -4.454247951507568 0.398646414279938 0.000000000000000
-2.664248943328857 -10.260505676269531 0.568550229072571 1.000000000000000
-2.663168191909790 -8.668606758117676 1.550102472305298 0.000000000000000
-2.662761449813843 5.848847389221191 1.336704492568970 0.000000000000000
-2.661943197250366 -8.776906967163086 1.907716035842896 0.000000000000000
-2.653319120407104 -9.620356559753418 1.062982797622681 0.000000000000000
-2.651318311691284 -5.270186424255371 0.316408723592758 0.000000000000000
-2.650243759155273 9.686328887939453 1.716569900512695 1.000000000000000
-2.642606735229492 -2.089927673339844 0.902760863304138 0.000000000000000
-2.642258644104004 -6.733944892883301 0.179316326975822 1.000000000000000
-2.639660596847534 -2.796052217483521 0.228448167443275 0.000000000000000
-2.638784885406494 -11.654194831848145 0.594866514205933 0.000000000000000
-2.636570930480957 -2.513055086135864 0.202365428209305 0.000000000000000
-2.634490489959717 -2.213108539581299 0.224308982491493 0.000000000000000
-2.632897377014160 -2.769457340240479 0.227024808526039 0.000000000000000
-2.632293939590454 -12.363805770874023 0.994861423969269 0.000000000000000
-2.628889560699463 -11.686224937438965 2.047482967376709 1.000000000000000
-2.628864049911499 -11.927971839904785 0.961280941963196 0.000000000000000
-2.627368211746216 -10.396996498107910 0.059893809258938 1.000000000000000
-2.627021789550781 -7.922041893005371 0.705255806446075 0.000000000000000
-2.626198768615723 -4.733110904693604 0.802200555801392 0.000000000000000
-2.625189065933228 -8.908721923828125 0.989264607429504 0.000000000000000
-2.623558044433594 -10.135787963867188 1.281823277473450 0.000000000000000
-2.618558168411255 -1.685541868209839 0.834432661533356 0.000000000000000
-2.617732524871826 -11.923990249633789 0.443378239870071 0.000000000000000
-2.616753816604614 -3.352668046951294 0.884619891643524 0.000000000000000
-2.608833312988281 -1.626257061958313 0.639435112476349 0.000000000000000
-2.607437133789062 -8.753170967102051 1.037375926971436 1.000000000000000
-2.603060483932495 -8.815461158752441 2.462922096252441 0.000000000000000
-2.601877927780151 -5.209222793579102 0.447022855281830 0.000000000000000
-2.600840091705322 -5.141651630401611 0.547716021537781 0.000000000000000
-2.594236850738525 -12.230113983154297 0.863278210163116 0.000000000000000
-2.588724136352539 -5.066659450531006 0.403849422931671 0.000000000000000
-2.585398912429810 -11.767888069152832 0.924969911575317 0.000000000000000
-2.582482814788818 -11.737994194030762 1.365110874176025 1.000000000000000
-2.581758737564087 -11.699666976928711 1.775631070137024 0.000000000000000
-2.576348781585693 -5.910804271697998 0.395498991012573 0.000000000000000
-2.573330163955688 -5.272838115692139 0.235653892159462 0.000000000000000
-2.570564985275269 -4.107698440551758 0.828293859958649 0.000000000000000
-2.563915967941284 -11.737528800964355 1.470912933349609 0.000000000000000
-2.557625055313110 -10.162814140319824 0.078650787472725 1.000000000000000
-2.554569482803345 -11.636277198791504 0.249549880623817 0.000000000000000
-2.552544355392456 -5.605196475982666 0.247372388839722 0.000000000000000
-2.552197217941284 -10.417369842529297 1.427270412445068 1.000000000000000
-2.547293663024902 -4.238738536834717 0.430914938449860 0.000000000000000
-2.546584844589233 -8.707515716552734 1.110719084739685 1.000000000000000
-2.545566320419312 -10.034936904907227 0.902108788490295 1.000000000000000
-2.542278289794922 -11.887009620666504 2.528416156768799 1.000000000000000
-2.542136669158936 -12.299298286437988 0.721963524818420 1.000000000000000
-2.538489103317261 -11.712271690368652 1.276511549949646 1.000000000000000
-2.536287784576416 -11.754632949829102 1.016120791435242 0.000000000000000
-2.530619859695435 -11.675963401794434 0.940253853797913 1.000000000000000
-2.530414581298828 -9.947517395019531 2.134980201721191 1.000000000000000
-2.523941993713379 -9.999472618103027 1.372395634651184 1.000000000000000
-2.523618936538696 -4.000621795654297 0.412164419889450 0.000000000000000
-2.520126104354858 -4.002822875976562 0.412164419889450 0.000000000000000
-2.508253335952759 -2.656859159469604 0.759991049766541 0.000000000000000
-2.507590532302856 -10.366724967956543 0.366863012313843 1.000000000000000
-2.500770807266235 -10.351179122924805 0.386758208274841 1.000000000000000
-2.498006820678711 -2.681785583496094 0.332248598337173 0.000000000000000
-2.496678352355957 -10.039006233215332 1.376616835594177 1.000000000000000
-2.491383075714111 -11.895497322082520 0.394682288169861 1.000000000000000
-2.484356880187988 -4.343378543853760 0.532974243164062 0.000000000000000
-2.483498811721802 -2.300873279571533 0.129467025399208 0.000000000000000
-2.483177900314331 -1.960814476013184 0.275702238082886 0.000000000000000
-2.473447084426880 -5.812404632568359 1.313896656036377 0.000000000000000
-2.469904422760010 -4.711667060852051 0.295560032129288 0.000000000000000
-2.466018676757812 -9.985642433166504 0.977712869644165 1.000000000000000
-2.461938142776489 -12.188992500305176 0.786710619926453 0.000000000000000
-2.452697038650513 -10.098895072937012 0.637451291084290 1.000000000000000
-2.444256067276001 -11.932861328125000 1.620914816856384 0.000000000000000
-2.443381547927856 -10.044490814208984 0.982633590698242 1.000000000000000
-2.442457675933838 -4.483694553375244 0.323018550872803 0.000000000000000
-2.439142942428589 -9.365357398986816 1.099221229553223 1.000000000000000
-2.435060739517212 -9.055522918701172 2.512615203857422 0.000000000000000
-2.433310508728027 -11.737641334533691 0.989740848541260 1.000000000000000
-2.428474187850952 -4.278016090393066 0.216499030590057 0.000000000000000
-2.428154230117798 -3.941049337387085 0.419644445180893 0.000000000000000
-2.426699876785278 -10.032311439514160 1.172352194786072 1.000000000000000
-2.423558950424194 -9.519104957580566 0.855926990509033 1.000000000000000
-2.422997713088989 -4.485167980194092 0.322513461112976 0.000000000000000
-2.422801494598389 -11.794609069824219 0.414164662361145 0.000000000000000
-2.422478437423706 -5.637930393218994 0.583296775817871 0.000000000000000
-2.421769142150879 -11.323541641235352 0.866611003875732 1.000000000000000
-2.421253442764282 -9.247685432434082 1.988358259201050 1.000000000000000
-2.420186758041382 -10.136121749877930 1.110010027885437 1.000000000000000
-2.419603586196899 -4.930094718933105 0.421609938144684 0.000000000000000
-2.414556741714478 -10.168310165405273 0.520284473896027 0.000000000000000
-2.406072378158569 -4.894311904907227 0.261008739471436 0.000000000000000
-2.406060934066772 -11.941341400146484 0.255162477493286 0.000000000000000
-2.401247978210449 -11.289238929748535 1.310939788818359 1.000000000000000
-2.399665117263794 -10.099317550659180 1.381365537643433 1.000000000000000
-2.389242172241211 -5.957845211029053 0.610171556472778 0.000000000000000
-2.386956691741943 -9.855961799621582 0.251379847526550 0.000000000000000
-2.384996175765991 -9.364910125732422 1.651870012283325 1.000000000000000
-2.383879899978638 -10.140637397766113 1.109586358070374 1.000000000000000
-2.382376909255981 -8.852824211120605 1.906901478767395 1.000000000000000
-2.380674600601196 -2.083536863327026 0.359334737062454 0.000000000000000
-2.371512889862061 -4.855438232421875 0.513649404048920 1.000000000000000
-2.368724107742310 -11.727493286132812 1.274393081665039 0.000000000000000
-2.367751836776733 -9.874546051025391 0.720755100250244 1.000000000000000
-2.358734607696533 -10.231468200683594 0.058642763644457 1.000000000000000
-2.357544660568237 -11.851103782653809 1.212466120719910 1.000000000000000
-2.350306272506714 -9.289683341979980 1.088386893272400 1.000000000000000
-2.348202943801880 -10.213465690612793 0.038411121815443 1.000000000000000
-2.342571020126343 -4.637300014495850 0.078894920647144 0.000000000000000
-2.338482141494751 7.982488632202148 1.730140447616577 1.000000000000000
-2.337335348129272 -11.572087287902832 0.383387088775635 0.000000000000000
-2.336934328079224 -2.030894279479980 0.351660490036011 0.000000000000000
-2.336839437484741 -9.831092834472656 0.619819104671478 1.000000000000000
-2.334416151046753 -11.524458885192871 0.359255105257034 1.000000000000000
-2.332172393798828 -11.757870674133301 0.943392217159271 0.000000000000000
-2.328926324844360 -11.741505622863770 0.204761818051338 1.000000000000000
-2.325306415557861 -9.736491203308105 0.440560579299927 0.000000000000000
-2.325227499008179 -10.210601806640625 0.501174986362457 1.000000000000000
-2.322567939758301 8.031986236572266 1.739100575447083 1.000000000000000
-2.320840358734131 -1.951009035110474 0.221056625247002 0.000000000000000
-2.317647695541382 -4.186488151550293 0.376603692770004 0.000000000000000
-2.317335844039917 -10.100197792053223 1.268698811531067 1.000000000000000
-2.308768987655640 -2.444188594818115 0.304801970720291 0.000000000000000
-2.304183006286621 -4.793303966522217 0.131835654377937 0.000000000000000
-2.301204442977905 -4.122757434844971 0.153328880667686 0.000000000000000
-2.295884847640991 -10.264466285705566 0.200121358036995 1.000000000000000
-2.287083148956299 -3.892320632934570 0.771681427955627 0.000000000000000
-2.284037590026855 -11.560649871826172 1.568150758743286 0.000000000000000
-2.282616138458252 -3.988579034805298 0.202253356575966 0.000000000000000
-2.282047033309937 -2.592850923538208 0.718448162078857 0.000000000000000
-2.281530857086182 -9.896582603454590 1.243422031402588 0.000000000000000
-2.275994539260864 -10.210677146911621 0.239226117730141 0.000000000000000
-2.272897958755493 -9.081649780273438 2.508474349975586 0.000000000000000
-2.257638931274414 -9.280921936035156 1.986729145050049 1.000000000000000
-2.254732847213745 -4.502403259277344 0.076465524733067 0.000000000000000
-2.251218080520630 -10.259621620178223 0.078830905258656 0.000000000000000
-2.246969938278198 -8.473895072937012 2.349041700363159 1.000000000000000
-2.242369651794434 -9.101174354553223 2.511580228805542 1.000000000000000
-2.239854574203491 -8.567662239074707 2.372853040695190 1.000000000000000
-2.234377861022949 -9.013856887817383 1.136968135833740 0.000000000000000
-2.218952178955078 -4.771378993988037 0.322766333818436 0.000000000000000
-2.213816642761230 -11.820299148559570 0.228807955980301 0.000000000000000
-2.206182241439819 -4.686040878295898 0.078651987016201 0.000000000000000
-2.195463180541992 -4.094349861145020 0.141943022608757 0.000000000000000
-2.195335626602173 -4.397203445434570 0.301460832357407 0.000000000000000
-2.193993806838989 7.999042510986328 1.725252985954285 1.000000000000000
-2.190496683120728 -4.416790485382080 0.311906099319458 0.000000000000000
-2.182379722595215 -8.907876014709473 0.774973094463348 1.000000000000000
-2.182024478912354 -4.542429924011230 0.456841856241226 0.000000000000000
-2.180218696594238 -4.535425662994385 0.279583841562271 0.000000000000000
-2.176964521408081 -9.052397727966309 1.139884591102600 1.000000000000000
-2.176397562026978 -4.568246841430664 0.281137079000473 0.000000000000000
-2.175712585449219 -8.783761024475098 0.747160553932190 1.000000000000000
-2.174370050430298 -9.548152923583984 1.043070435523987 0.000000000000000
-2.164309740066528 -9.344148635864258 0.293047606945038 1.000000000000000
-2.162942886352539 -4.033702373504639 0.459267467260361 0.000000000000000
-2.157829284667969 -9.458747863769531 2.599578619003296 0.000000000000000
-2.153024911880493 -9.591967582702637 0.986426591873169 1.000000000000000
-2.152930498123169 -11.512976646423340 1.433969974517822 1.000000000000000
-2.152545213699341 -12.480086326599121 1.685287237167358 1.000000000000000
-2.148635387420654 -5.412477970123291 1.211261272430420 0.000000000000000
-2.142939329147339 -11.202873229980469 0.370404124259949 1.000000000000000
-2.137656450271606 -2.309752702713013 0.174850836396217 0.000000000000000
-2.134811162948608 -10.240196228027344 0.400017946958542 1.000000000000000
-2.131891489028931 -9.083662986755371 0.320936352014542 1.000000000000000
-2.124428033828735 -2.236021518707275 0.268757581710815 0.000000000000000
-2.120785236358643 -9.036340713500977 0.748432397842407 1.000000000000000
-2.117825269699097 -11.093613624572754 0.214883163571358 0.000000000000000
-2.116418600082397 -9.428882598876953 0.295246362686157 1.000000000000000
-2.115953445434570 -5.028494358062744 1.461809992790222 0.000000000000000
-2.112237215042114 -10.103662490844727 0.672926962375641 0.000000000000000
-2.110612392425537 -8.783229827880859 0.745843887329102 1.000000000000000
-2.109782218933105 -4.244176387786865 0.281586676836014 0.000000000000000
-2.105658531188965 -5.045608997344971 0.519705653190613 0.000000000000000
-2.105133056640625 -8.808461189270020 2.426687479019165 0.000000000000000
-2.103156328201294 -12.619386672973633 0.760070562362671 0.000000000000000
-2.102584123611450 -3.414762735366821 0.834116697311401 0.000000000000000
-2.102273702621460 -2.369679212570190 0.035939052700996 0.000000000000000
-2.101460456848145 -10.259332656860352 0.400476515293121 1.000000000000000
-2.099495172500610 -11.014294624328613 0.407228529453278 1.000000000000000
-2.098720550537109 -10.067076683044434 0.710075974464417 0.000000000000000
-2.090962171554565 -12.116726875305176 0.943953096866608 1.000000000000000
-2.088037729263306 -8.926220893859863 1.219907283782959 1.000000000000000
-2.087954998016357 -3.680099964141846 0.202496886253357 0.000000000000000
-2.085100412368774 -9.477272987365723 0.035566940903664 1.000000000000000
-2.084893703460693 -3.704775333404541 0.203452959656715 0.000000000000000
-2.077275037765503 -11.068829536437988 0.365730255842209 0.000000000000000
-2.069284200668335 -2.221521615982056 0.518947303295135 0.000000000000000
-2.068215131759644 -9.246598243713379 1.076198458671570 1.000000000000000
-2.066921949386597 -9.921474456787109 0.660696625709534 0.000000000000000
-2.066128730773926 -11.691345214843750 0.522517144680023 1.000000000000000
-2.062887430191040 -10.032714843750000 0.332623660564423 0.000000000000000
-2.056674480438232 -9.819913864135742 0.789612352848053 1.000000000000000
-2.055833578109741 -12.429060935974121 1.542368412017822 1.000000000000000
-2.049717903137207 -12.081466674804688 0.964419305324554 1.000000000000000
-2.049689769744873 -8.849290847778320 2.433934450149536 0.000000000000000
-2.049273252487183 -9.990362167358398 0.527335107326508 1.000000000000000
-2.048867464065552 -8.888067245483398 0.700233757495880 1.000000000000000
-2.045697689056396 -9.639142036437988 0.661400437355042 1.000000000000000
-2.041462182998657 -12.649122238159180 0.835303723812103 1.000000000000000
-2.040762186050415 -12.611203193664551 0.857490003108978 0.000000000000000
-2.037988424301147 -4.408389091491699 1.301342248916626 0.000000000000000
-2.027046203613281 -3.749882459640503 0.105666778981686 0.000000000000000
-2.026570796966553 -9.013141632080078 0.691378295421600 1.000000000000000
-2.022382020950317 -8.957978248596191 1.124329686164856 1.000000000000000
-2.021346330642700 -10.216034889221191 0.538489103317261 1.000000000000000
-2.021055936813354 -4.842883110046387 1.091519832611084 0.000000000000000
-2.020855426788330 -10.044040679931641 0.234287947416306 1.000000000000000
-2.015456676483154 -9.340798377990723 1.271616101264954 1.000000000000000
-2.011234045028687 -11.793467521667480 0.319549977779388 1.000000000000000
-2.005218982696533 -11.580059051513672 0.291327059268951 1.000000000000000
-2.005214929580688 -9.418434143066406 1.025699973106384 0.000000000000000
-2.003259658813477 -4.167304515838623 0.043579526245594 0.000000000000000
-2.000488519668579 -8.974687576293945 1.223600745201111 1.000000000000000
-1.998568654060364 -9.237504959106445 1.073489904403687 1.000000000000000
-1.995985507965088 -4.397881031036377 1.294095277786255 0.000000000000000
-1.989462614059448 -9.499000549316406 1.033749699592590 1.000000000000000
-1.979782223701477 -4.838751792907715 1.087447047233582 0.000000000000000
-1.978130221366882 -11.951513290405273 1.375945091247559 1.000000000000000
-1.975870251655579 -3.881380796432495 0.463916361331940 0.000000000000000
-1.970300912857056 -11.651595115661621 0.406464368104935 1.000000000000000
-1.970167279243469 -11.612577438354492 0.563702404499054 0.000000000000000
-1.970085263252258 -11.902906417846680 0.972833573818207 1.000000000000000
-1.965670347213745 -9.032042503356934 0.673931837081909 1.000000000000000
-1.964728951454163 -9.846818923950195 0.248901769518852 1.000000000000000
-1.961542487144470 -11.614597320556641 0.631746292114258 1.000000000000000
-1.960147738456726 -9.126173973083496 1.142801165580750 0.000000000000000
-1.959797859191895 -3.597661256790161 0.436377972364426 0.000000000000000
-1.959766626358032 -9.890301704406738 0.657313764095306 1.000000000000000
-1.959355711936951 -9.849453926086426 0.770961344242096 1.000000000000000
-1.956190466880798 -8.586620330810547 0.767382740974426 1.000000000000000
-1.954399228096008 -3.672288179397583 0.183083251118660 0.000000000000000
-1.948125481605530 -8.418819427490234 0.680083513259888 1.000000000000000
-1.947689652442932 -9.508624076843262 0.520564079284668 1.000000000000000
-1.942699670791626 -12.085458755493164 1.498620152473450 1.000000000000000
-1.936691761016846 -5.246249675750732 1.163201808929443 0.000000000000000
-1.934174418449402 -11.903777122497559 0.762970328330994 0.000000000000000
-1.933869600296021 -8.462721824645996 0.825169920921326 0.000000000000000
-1.933592081069946 -9.758207321166992 0.036461245268583 1.000000000000000
-1.929239869117737 -11.079167366027832 1.019497632980347 1.000000000000000
-1.926242947578430 -5.162406444549561 1.146095871925354 0.000000000000000
-1.925848245620728 -10.067963600158691 0.175343990325928 1.000000000000000
-1.925210833549500 -8.558156013488770 0.795229852199554 1.000000000000000
-1.920309782028198 -9.052992820739746 1.231515407562256 0.000000000000000
-1.917989015579224 -11.740730285644531 0.683856666088104 1.000000000000000
-1.916097640991211 -9.698322296142578 0.530204176902771 1.000000000000000
-1.915157556533813 -8.774872779846191 0.741564989089966 1.000000000000000
-1.914867758750916 -10.996631622314453 1.907973766326904 1.000000000000000
-1.912393212318420 -10.017518043518066 1.158357977867126 1.000000000000000
-1.911140680313110 -3.448641300201416 0.097736813127995 0.000000000000000
-1.909928679466248 -5.074828624725342 0.134412899613380 0.000000000000000
-1.909433245658875 -11.254598617553711 1.215927004814148 0.000000000000000
-1.908124089241028 -9.289072036743164 1.077101349830627 1.000000000000000
-1.907422184944153 -11.524307250976562 0.401789218187332 1.000000000000000
-1.906208992004395 -9.244544982910156 2.529179811477661 1.000000000000000
-1.902971029281616 -8.672533035278320 0.613084614276886 1.000000000000000
-1.894128918647766 -10.981833457946777 0.597684681415558 0.000000000000000
-1.885854721069336 -4.231523990631104 0.464858531951904 0.000000000000000
-1.885120511054993 -9.342426300048828 1.082518458366394 1.000000000000000
-1.880333542823792 -11.817226409912109 3.206250429153442 0.000000000000000
-1.880069255828857 -9.450889587402344 2.581979036331177 0.000000000000000
-1.879590630531311 -9.513543128967285 0.819430470466614 0.000000000000000
-1.877764105796814 -9.270075798034668 2.534356355667114 0.000000000000000
-1.870785474777222 -11.265118598937988 1.216350555419922 1.000000000000000
-1.867497920989990 -4.267629623413086 0.405914247035980 0.000000000000000
-1.865933299064636 -12.006072044372559 0.488002628087997 0.000000000000000
-1.865667819976807 -8.430801391601562 1.475967049598694 1.000000000000000
