# This PCD file was generated using the MATLAB® pcwrite function
# from Computer Vision Toolbox®.
# .PCD v.7 - Point Cloud Data file format
VERSION .7
FIELDS x y z intensity
SIZE 8 8 8 8
TYPE F F F F
COUNT 1 1 1 1
WIDTH 650
HEIGHT 1
VIEWPOINT 0 0 0 1 0 0 0
POINTS 650
DATA ascii
1.814131259918213 6.792237758636475 0.282367289066315 0.000000000000000
1.819573044776917 -3.073301076889038 0.742885172367096 0.000000000000000
1.825465798377991 -6.247461318969727 1.353810429573059 0.000000000000000
1.828439831733704 6.841033458709717 0.617031335830688 0.000000000000000
1.830660343170166 -5.733106613159180 0.462025672197342 0.000000000000000
1.836589694023132 -7.006643772125244 0.688524842262268 0.000000000000000
1.836654186248779 6.847794532775879 0.175747841596603 0.000000000000000
1.841881394386292 -6.235664367675781 0.161176517605782 0.000000000000000
1.849343538284302 -13.992425918579102 3.781863927841187 0.000000000000000
1.853065609931946 -3.347426414489746 0.795832037925720 0.000000000000000
1.853412151336670 -3.947280883789062 0.745397090911865 0.000000000000000
1.857438921928406 -11.215014457702637 1.512748360633850 0.000000000000000
1.860959529876709 -9.308115959167480 1.406783103942871 0.000000000000000
1.866172671318054 -12.616359710693359 0.880637466907501 0.000000000000000
1.867099642753601 -7.139291763305664 1.093643307685852 0.000000000000000
1.872335195541382 -13.496642112731934 1.019753098487854 0.000000000000000
1.872709631919861 -8.937655448913574 0.068534247577190 1.000000000000000
1.877929925918579 -9.061012268066406 2.479486703872681 0.000000000000000
1.878299713134766 -2.801643371582031 0.903796136379242 0.000000000000000
1.881204605102539 -4.043096065521240 0.762246012687683 0.000000000000000
1.882630825042725 -6.957540512084961 0.344952225685120 0.000000000000000
1.887995481491089 -9.038902282714844 0.193424195051193 0.000000000000000
1.892337441444397 -7.008936405181885 1.945284008979797 0.000000000000000
1.893756866455078 -9.087086677551270 0.176608994603157 0.000000000000000
1.893757939338684 -6.170314788818359 1.103268504142761 0.000000000000000
1.893864393234253 -9.645085334777832 2.633742809295654 0.000000000000000
1.897235751152039 -11.212371826171875 1.513275980949402 0.000000000000000
1.897266507148743 -7.161630153656006 0.907046735286713 0.000000000000000
1.904344916343689 -10.727803230285645 0.102690860629082 0.000000000000000
1.907297253608704 -11.198154449462891 0.806282818317413 0.000000000000000
1.908809304237366 -8.830084800720215 0.328105688095093 0.000000000000000
1.910146117210388 -3.327353715896606 1.028029322624207 1.000000000000000
1.911830425262451 -11.317833900451660 0.770428359508514 0.000000000000000
1.913996815681458 -6.141738414764404 1.723734855651855 0.000000000000000
1.916314005851746 -7.204060554504395 1.104784965515137 0.000000000000000
1.918468832969666 -11.337856292724609 0.971663355827332 0.000000000000000
1.918818473815918 -7.287148475646973 0.607619106769562 0.000000000000000
1.920756697654724 -7.300200939178467 0.594092309474945 0.000000000000000
1.922367095947266 -10.228631019592285 0.078110441565514 0.000000000000000
1.922713041305542 -13.859788894653320 2.910448074340820 0.000000000000000
1.925619721412659 -3.327353477478027 1.030099868774414 0.000000000000000
1.927486777305603 -10.514444351196289 0.223916366696358 0.000000000000000
1.927996635437012 -11.898551940917969 1.604030370712280 0.000000000000000
1.930450797080994 -14.281670570373535 2.997606754302979 0.000000000000000
1.931874632835388 -3.824627637863159 1.148121356964111 0.000000000000000
1.933078765869141 -6.660643100738525 0.478894829750061 0.000000000000000
1.934914231300354 -8.899686813354492 0.085839606821537 0.000000000000000
1.936940312385559 -11.197375297546387 0.609466969966888 0.000000000000000
1.943048715591431 -8.838966369628906 0.189570784568787 0.000000000000000
1.951472759246826 -11.523115158081055 0.761921942234039 0.000000000000000
1.951714277267456 -8.746521949768066 0.687986612319946 0.000000000000000
1.952858209609985 -9.515266418457031 0.352786213159561 0.000000000000000
1.957643270492554 -13.758562088012695 1.040052652359009 0.000000000000000
1.964906930923462 -8.598543167114258 0.371217697858810 0.000000000000000
1.970882892608643 -4.471547603607178 0.724208831787109 0.000000000000000
1.979212403297424 -2.540946006774902 0.477332800626755 0.000000000000000
1.982257246971130 -11.660395622253418 1.448066592216492 0.000000000000000
1.984331369400024 -7.558981418609619 0.118676431477070 0.000000000000000
1.987414836883545 -11.216233253479004 1.394596576690674 0.000000000000000
1.988112211227417 -3.416466951370239 0.585817515850067 0.000000000000000
1.991075754165649 -2.646472454071045 0.490820080041885 0.000000000000000
1.996434926986694 -3.576889276504517 0.852037131786346 1.000000000000000
1.997656702995300 -8.202184677124023 0.802458882331848 0.000000000000000
1.999581456184387 -8.611751556396484 0.236138045787811 1.000000000000000
2.011682271957397 -4.232969284057617 1.255790114402771 0.000000000000000
2.015184879302979 -12.086325645446777 0.869720578193665 0.000000000000000
2.016591072082520 -3.583550214767456 0.855295419692993 0.000000000000000
2.016907453536987 -6.364262580871582 0.564137279987335 0.000000000000000
2.024038314819336 -4.222791194915771 1.254754781723022 0.000000000000000
2.026744604110718 -6.371356964111328 0.165736258029938 1.000000000000000
2.027304410934448 -7.263920783996582 1.003574252128601 0.000000000000000
2.027463912963867 -8.297476768493652 0.672237634658813 0.000000000000000
2.029229640960693 -4.052453517913818 1.214379072189331 1.000000000000000
2.030102968215942 -6.564691543579102 0.914402782917023 0.000000000000000
2.031532526016235 -7.448501586914062 0.548000454902649 0.000000000000000
2.031623363494873 -11.505466461181641 0.446791142225266 0.000000000000000
2.034548044204712 -4.538509368896484 0.737109780311584 0.000000000000000
2.037413358688354 -3.398613452911377 0.677327334880829 0.000000000000000
2.046823740005493 -11.864657402038574 0.622556984424591 0.000000000000000
2.051738500595093 -3.449758768081665 0.686088740825653 1.000000000000000
2.060495853424072 -10.648945808410645 0.853635013103485 0.000000000000000
2.064955949783325 -13.177503585815430 1.976767539978027 0.000000000000000
2.069176435470581 -10.455845832824707 0.735977113246918 0.000000000000000
2.070699214935303 -11.757913589477539 1.461677193641663 0.000000000000000
2.070882320404053 -7.576102256774902 0.587790966033936 0.000000000000000
2.078355312347412 -2.949971675872803 0.534800410270691 0.000000000000000
2.078879594802856 -3.174683570861816 0.789315462112427 0.000000000000000
2.080036878585815 -4.511533737182617 0.849186539649963 0.000000000000000
2.086854696273804 -9.269159317016602 0.903144776821136 0.000000000000000
2.091610670089722 -9.068425178527832 1.139398455619812 0.000000000000000
2.094130754470825 -6.062540531158447 0.158995792269707 0.000000000000000
2.094133377075195 7.213701248168945 0.085219122469425 0.000000000000000
2.110026597976685 -6.860451698303223 1.063736796379089 0.000000000000000
2.111138105392456 -11.955774307250977 1.025887966156006 0.000000000000000
2.116326808929443 -7.960449695587158 0.616449117660522 0.000000000000000
2.117682456970215 -10.900629997253418 0.938320279121399 0.000000000000000
2.124323129653931 -8.788953781127930 0.328396052122116 0.000000000000000
2.125198364257812 -9.288038253784180 1.981841683387756 0.000000000000000
2.130675554275513 -8.214456558227539 0.406141072511673 0.000000000000000
2.130791425704956 -11.232830047607422 0.723319113254547 0.000000000000000
2.131357669830322 -5.326617240905762 1.193340778350830 0.000000000000000
2.135125160217285 -8.009762763977051 0.205485209822655 0.000000000000000
2.142048120498657 -11.764746665954590 3.204179763793945 0.000000000000000
2.150205135345459 -7.712600708007812 0.290794551372528 0.000000000000000
2.150913715362549 -7.311004638671875 0.643958508968353 0.000000000000000
2.154498338699341 -6.427556991577148 0.533521890640259 0.000000000000000
2.154673099517822 -2.884826898574829 0.533627569675446 0.000000000000000
2.154720544815063 -13.207226753234863 1.983218073844910 0.000000000000000
2.156336545944214 -4.368965625762939 1.305483341217041 0.000000000000000
2.163340330123901 -11.555244445800781 0.811751544475555 0.000000000000000
2.163446664810181 -7.711171150207520 0.337073087692261 0.000000000000000
2.169852256774902 -4.357954025268555 1.304448127746582 0.000000000000000
2.175164699554443 -7.497707843780518 0.283535599708557 0.000000000000000
2.175859689712524 -12.088080406188965 0.658738493919373 0.000000000000000
2.175981760025024 -11.495155334472656 3.134816408157349 0.000000000000000
2.176529645919800 -11.643666267395020 0.795073509216309 0.000000000000000
2.176618814468384 -12.212056159973145 1.838376402854919 0.000000000000000
2.180560111999512 -9.305629730224609 0.347124218940735 0.000000000000000
2.181330442428589 -6.905264854431152 0.569926917552948 0.000000000000000
2.181611061096191 -7.553914546966553 2.106787204742432 0.000000000000000
2.183925867080688 -9.164321899414062 1.253676414489746 1.000000000000000
2.185817241668701 -12.863240242004395 0.097923226654530 0.000000000000000
2.193086385726929 -7.251042842864990 0.927462637424469 0.000000000000000
2.200859785079956 -7.836108207702637 0.773691475391388 0.000000000000000
2.206152677536011 -9.410411834716797 0.816736102104187 0.000000000000000
2.209170103073120 -9.383473396301270 1.180230259895325 0.000000000000000
2.216457605361938 -7.737857818603516 1.071112394332886 0.000000000000000
2.217323303222656 -10.456804275512695 0.861918985843658 0.000000000000000
2.219462394714355 -13.008998870849609 0.962177991867065 0.000000000000000
2.225490331649780 -11.171989440917969 0.107365481555462 0.000000000000000
2.232748746871948 -12.588019371032715 1.055570006370544 0.000000000000000
2.241307497024536 -7.491562843322754 0.073700673878193 0.000000000000000
2.243949174880981 -13.057644844055176 1.411237835884094 0.000000000000000
2.248067617416382 -7.714775085449219 0.075736396014690 0.000000000000000
2.250219345092773 -12.122198104858398 1.074335932731628 0.000000000000000
2.250272035598755 -12.118954658508301 1.236827254295349 0.000000000000000
2.250309705734253 -12.608944892883301 3.431940555572510 0.000000000000000
2.253841400146484 -7.414077758789062 0.777559757232666 0.000000000000000
2.256715059280396 -7.775768756866455 1.077444076538086 0.000000000000000
2.261270999908447 -3.598911523818970 0.726526260375977 0.000000000000000
2.262551307678223 -3.894015789031982 0.936752140522003 0.000000000000000
2.264132976531982 -6.187368869781494 0.505809426307678 1.000000000000000
2.264859199523926 -13.001172065734863 0.962177991867065 0.000000000000000
2.266545534133911 -3.932426214218140 0.944083213806152 0.000000000000000
2.267601251602173 -12.377085685729980 1.429213285446167 0.000000000000000
2.277824401855469 -12.510469436645508 1.275964736938477 0.000000000000000
2.278244972229004 -7.369378089904785 0.473129391670227 0.000000000000000
2.280519723892212 -12.440238952636719 0.848917782306671 0.000000000000000
2.283420324325562 -12.463429450988770 1.021700263023376 0.000000000000000
2.284015417098999 -10.934874534606934 0.749801456928253 0.000000000000000
2.290627241134644 -7.653495311737061 0.336232095956802 0.000000000000000
2.293267011642456 -4.988443374633789 1.471127629280090 0.000000000000000
2.294681549072266 -3.613329172134399 0.890321791172028 0.000000000000000
2.296847105026245 -2.821436643600464 0.756732761859894 0.000000000000000
2.299397706985474 -9.890457153320312 0.965221762657166 0.000000000000000
2.304114818572998 -5.309741497039795 1.203930139541626 0.000000000000000
2.307798624038696 -7.454372406005859 0.508728563785553 0.000000000000000
2.309331655502319 -12.760592460632324 1.070710659027100 0.000000000000000
2.314570426940918 -1.951674580574036 0.274466246366501 0.000000000000000
2.318314552307129 -1.941025733947754 0.274105101823807 0.000000000000000
2.319549083709717 -12.415976524353027 1.434630393981934 0.000000000000000
2.320250749588013 -12.918689727783203 1.058350205421448 0.000000000000000
2.323575258255005 -3.136466264724731 0.667217969894409 0.000000000000000
2.327575922012329 -7.586626529693604 0.074793927371502 0.000000000000000
2.335783004760742 -11.312868118286133 0.108873426914215 0.000000000000000
2.336171150207520 -10.927034378051758 0.922595143318176 0.000000000000000
2.347217798233032 -3.051668643951416 0.570571005344391 0.000000000000000
2.348273754119873 -3.143803596496582 0.816196262836456 0.000000000000000
2.348524093627930 -12.522633552551270 0.830619752407074 0.000000000000000
2.350874662399292 -2.868324041366577 0.771395027637482 0.000000000000000
2.352024316787720 -12.582500457763672 1.056886553764343 0.000000000000000
2.357702970504761 -12.136118888854980 1.645186305046082 0.000000000000000
2.366677522659302 -4.236580371856689 1.300306916236877 0.000000000000000
2.367378234863281 -12.893751144409180 1.107729911804199 0.000000000000000
2.369076013565063 -9.889196395874023 0.741412222385406 0.000000000000000
2.370023488998413 -1.982490777969360 0.642693400382996 0.000000000000000
2.381059169769287 -2.005890607833862 0.647580802440643 0.000000000000000
2.381939411163330 7.428686141967773 0.208369657397270 0.000000000000000
2.382310867309570 -10.271471023559570 0.870590150356293 0.000000000000000
2.382730245590210 -3.896042585372925 1.223696470260620 1.000000000000000
2.384987592697144 7.373496055603027 0.192103385925293 0.000000000000000
2.385580062866211 -4.305648803710938 1.318941950798035 1.000000000000000
2.386366128921509 -9.446075439453125 0.804431796073914 0.000000000000000
2.387570142745972 -12.431196212768555 0.922911405563354 0.000000000000000
2.387891054153442 -7.104497909545898 0.272211611270905 1.000000000000000
2.395323991775513 7.470429897308350 0.330176889896393 0.000000000000000
2.396634578704834 -4.121799945831299 0.706616759300232 1.000000000000000
2.397151231765747 7.476128101348877 0.451313287019730 0.000000000000000
2.398416042327881 -14.412707328796387 1.788816690444946 0.000000000000000
2.400072813034058 -4.412668228149414 0.858621895313263 0.000000000000000
2.400763511657715 -5.270675659179688 1.551879048347473 0.000000000000000
2.404330015182495 -12.425931930541992 1.348111391067505 0.000000000000000
2.408089160919189 -2.741263628005981 0.446718096733093 0.000000000000000
2.408858060836792 -10.108196258544922 0.717515647411346 0.000000000000000
2.411206483840942 -3.973702430725098 1.245437264442444 1.000000000000000
2.414453744888306 -10.987049102783203 0.776757538318634 0.000000000000000
2.417994976043701 -3.560778141021729 1.153297781944275 0.000000000000000
2.419129371643066 -2.096402406692505 0.264303922653198 0.000000000000000
2.423158884048462 -3.590047121047974 0.900911211967468 0.000000000000000
2.425074815750122 -9.785352706909180 1.011586546897888 1.000000000000000
2.428120851516724 -10.294139862060547 0.958826184272766 0.000000000000000
2.431403636932373 -2.792675733566284 0.312885701656342 0.000000000000000
2.431748151779175 -12.227451324462891 1.526327371597290 0.000000000000000
2.432672977447510 -11.066276550292969 0.760516762733459 0.000000000000000
2.433531522750854 -7.076313495635986 0.271776050329208 0.000000000000000
2.437341690063477 -7.336322307586670 0.518887221813202 0.000000000000000
2.439014911651611 -10.247429847717285 0.220649346709251 0.000000000000000
2.439746141433716 -12.353299140930176 0.046151991933584 0.000000000000000
2.439899444580078 -1.746023535728455 0.149363011121750 0.000000000000000
2.447759389877319 -8.662890434265137 0.326944261789322 0.000000000000000
2.447905302047729 -3.681883811950684 0.919646203517914 0.000000000000000
2.452226638793945 -7.690327167510986 1.196264028549194 0.000000000000000
2.453077316284180 -12.323464393615723 1.037466883659363 0.000000000000000
2.453504562377930 -12.629251480102539 0.888352751731873 0.000000000000000
2.453604221343994 -10.402177810668945 0.779224574565887 0.000000000000000
2.455062389373779 -14.641040802001953 1.489624023437500 0.000000000000000
2.456162214279175 -7.614420890808105 1.664160370826721 0.000000000000000
2.460968017578125 -13.612040519714355 1.693542838096619 0.000000000000000
2.462986707687378 -13.325418472290039 0.153739288449287 0.000000000000000
2.463135004043579 -3.600147962570190 1.168826818466187 0.000000000000000
2.464641571044922 -6.980833530426025 1.097161769866943 0.000000000000000
2.468968391418457 -12.624088287353516 1.120864987373352 0.000000000000000
2.474271774291992 -12.965666770935059 1.756518840789795 0.000000000000000
2.475518703460693 -3.999145507812500 0.978295087814331 0.000000000000000
2.476851940155029 -7.353870868682861 0.058237601071596 1.000000000000000
2.478363037109375 -7.820364952087402 1.091690301895142 0.000000000000000
2.478477001190186 -4.248380184173584 1.317906618118286 0.000000000000000
2.480072736740112 -2.808739185333252 0.498621284961700 0.000000000000000
2.482310533523560 -12.324208259582520 0.843828022480011 0.000000000000000
2.485337734222412 -8.164324760437012 0.408435672521591 0.000000000000000
2.487804174423218 -12.344804763793945 1.675789594650269 0.000000000000000
2.491250514984131 -12.738018989562988 0.921263813972473 0.000000000000000
2.493269681930542 -3.634793043136597 0.193987354636192 1.000000000000000
2.494896173477173 -13.051473617553711 0.866269826889038 0.000000000000000
2.495159626007080 -8.821231842041016 0.774636328220367 0.000000000000000
2.496836900711060 -14.577979087829590 3.963037252426147 0.000000000000000
2.497526645660400 -9.380465507507324 0.974046349525452 0.000000000000000
2.508369684219360 -3.801542997360229 0.947341561317444 0.000000000000000
2.511151313781738 -1.942378520965576 0.090895511209965 1.000000000000000
2.513490915298462 -13.761205673217773 1.490040063858032 0.000000000000000
2.513586759567261 -14.723654747009277 1.419822216033936 0.000000000000000
2.514089345932007 -4.276777744293213 1.329294681549072 0.000000000000000
2.514656543731689 -14.776552200317383 1.237587451934814 0.000000000000000
2.518299341201782 -1.717931628227234 0.816832959651947 0.000000000000000
2.520970344543457 -2.688413143157959 0.369810134172440 0.000000000000000
2.521272897720337 -13.487920761108398 1.679932236671448 0.000000000000000
2.521425485610962 -11.282055854797363 0.419859170913696 0.000000000000000
2.524342060089111 -1.827385902404785 0.312701225280762 0.000000000000000
2.525834560394287 -1.941504955291748 0.544557690620422 0.000000000000000
2.526317119598389 -13.258499145507812 0.282722681760788 0.000000000000000
2.528475046157837 -2.193170785903931 0.244034871459007 0.000000000000000
2.531181812286377 -7.074763298034668 1.113581061363220 0.000000000000000
2.533208608627319 -2.212039470672607 0.245198339223862 0.000000000000000
2.533736467361450 -14.647430419921875 1.978128194808960 0.000000000000000
2.538806676864624 -9.478924751281738 0.829197645187378 0.000000000000000
2.539379835128784 -8.484632492065430 0.645717978477478 0.000000000000000
2.541208744049072 -1.966763019561768 0.549275398254395 0.000000000000000
2.541492938995361 -12.849599838256836 0.879188418388367 0.000000000000000
2.541794061660767 -2.041902542114258 0.275501072406769 0.000000000000000
2.544661045074463 -7.455265045166016 0.195275381207466 0.000000000000000
2.545104742050171 -13.006142616271973 0.966250181198120 0.000000000000000
2.545279979705811 -12.213383674621582 1.417024850845337 0.000000000000000
2.547645807266235 -14.475011825561523 1.669371724128723 0.000000000000000
2.549995422363281 -13.362472534179688 0.939328253269196 0.000000000000000
2.551614046096802 -6.898278713226318 0.738022804260254 0.000000000000000
2.552826881408691 -13.299134254455566 0.961195588111877 0.000000000000000
2.558010578155518 -7.768348217010498 1.212096929550171 0.000000000000000
2.558497428894043 -9.516544342041016 0.813647925853729 0.000000000000000
2.563434839248657 -5.059588432312012 1.519785523414612 0.000000000000000
2.564734220504761 -11.796559333801270 1.789118409156799 0.000000000000000
2.569597244262695 -11.779303550720215 1.786772847175598 0.000000000000000
2.574999094009399 -8.128253936767578 0.309667915105820 0.000000000000000
2.578594923019409 -4.133353233337402 1.013321399688721 0.000000000000000
2.583112478256226 -3.864732265472412 0.966891109943390 0.000000000000000
2.585819482803345 -7.090613842010498 0.657657444477081 0.000000000000000
2.586250066757202 -12.196647644042969 1.416121959686279 0.000000000000000
2.591065645217896 -11.052269935607910 1.510637760162354 0.000000000000000
2.593331336975098 -9.619321823120117 2.072258710861206 0.000000000000000
2.597617387771606 -7.796911239624023 1.217960953712463 0.000000000000000
2.605156183242798 -14.643020629882812 1.413765907287598 0.000000000000000
2.609868049621582 -5.892554283142090 1.726840734481812 0.000000000000000
2.612456560134888 -14.087322235107422 2.123368740081787 0.000000000000000
2.614968538284302 -3.631618022918701 0.663222849369049 0.000000000000000
2.617228031158447 -10.288801193237305 0.962437570095062 0.000000000000000
2.619866371154785 -1.723811984062195 0.273271620273590 0.000000000000000
2.620199680328369 -13.240243911743164 1.796091794967651 0.000000000000000
2.622440814971924 -1.574102044105530 0.453290253877640 0.000000000000000
2.622982025146484 -3.718175888061523 0.484676122665405 1.000000000000000
2.623980045318604 -14.707145690917969 1.301772832870483 0.000000000000000
2.624273777008057 -14.750476837158203 1.121250867843628 0.000000000000000
2.625621557235718 -14.213652610778809 2.142133474349976 0.000000000000000
2.629229784011841 -2.508248090744019 0.364618420600891 1.000000000000000
2.630328893661499 -7.601943969726562 1.192159175872803 0.000000000000000
2.630783319473267 -9.197647094726562 1.086581230163574 0.000000000000000
2.631496906280518 -12.982920646667480 1.093750834465027 0.000000000000000
2.633544445037842 -10.254004478454590 0.731017291545868 0.000000000000000
2.635900974273682 -14.019846916198730 1.746526837348938 0.000000000000000
2.636478662490845 -11.997381210327148 0.092189528048038 0.000000000000000
2.636905193328857 -9.209327697753906 0.790936887264252 0.000000000000000
2.641881942749023 -7.814981937408447 0.490107893943787 1.000000000000000
2.641916513442993 -3.950025081634521 0.704271137714386 0.000000000000000
2.645477056503296 -8.186159133911133 0.130641251802444 0.000000000000000
2.647118091583252 -4.245831489562988 0.855252146720886 0.000000000000000
2.647375106811523 -12.903863906860352 0.909569561481476 0.000000000000000
2.648073911666870 -5.272212982177734 1.580866813659668 0.000000000000000
2.650595426559448 -12.288558959960938 1.427858948707581 0.000000000000000
2.651473045349121 -9.630052566528320 0.844016730785370 0.000000000000000
2.662143707275391 -9.431689262390137 0.790226340293884 0.000000000000000
2.666757345199585 -9.720686912536621 0.637702763080597 0.000000000000000
2.670068025588989 -2.096461772918701 0.580277442932129 0.000000000000000
2.672714710235596 -10.257776260375977 0.405367851257324 0.000000000000000
2.675841808319092 -4.609392166137695 0.789886116981506 1.000000000000000
2.676489114761353 -13.935489654541016 2.425573348999023 0.000000000000000
2.679063796997070 -8.160897254943848 0.725800573825836 0.000000000000000
2.680341243743896 -2.763194322586060 0.800719439983368 0.000000000000000
2.683708429336548 -12.961416244506836 1.258194923400879 0.000000000000000
2.696874380111694 -7.602662086486816 0.137990191578865 0.000000000000000
2.698968887329102 -9.670524597167969 0.693267762660980 0.000000000000000
2.702349424362183 -13.171820640563965 0.514199614524841 0.000000000000000
2.708958625793457 -4.114912033081055 1.024725317955017 0.000000000000000
2.712234735488892 -13.282395362854004 0.648793160915375 0.000000000000000
2.712482213973999 -4.089113712310791 1.020652532577515 0.000000000000000
2.716776609420776 -13.304636955261230 1.446402311325073 0.000000000000000
2.719165563583374 -4.158646106719971 1.331365227699280 0.000000000000000
2.720261573791504 -12.411700248718262 1.443207502365112 0.000000000000000
2.721332550048828 -13.906712532043457 2.422203302383423 0.000000000000000
2.722192049026489 -13.783423423767090 1.595789313316345 0.000000000000000
2.722915649414062 -1.773624539375305 0.346136689186096 0.000000000000000
2.725281715393066 -4.507429122924805 1.095592737197876 0.000000000000000
2.726047515869141 -1.949787974357605 0.237891659140587 0.000000000000000
2.727538585662842 -2.583907842636108 0.376998692750931 0.000000000000000
2.730053424835205 -9.746421813964844 0.835700631141663 0.000000000000000
2.737539768218994 -8.828287124633789 1.131621003150940 0.000000000000000
2.745654582977295 -1.686628580093384 0.191440984606743 0.000000000000000
2.747113227844238 -4.507920742034912 1.098036408424377 0.000000000000000
2.750552654266357 -8.822330474853516 0.229076847434044 0.000000000000000
2.751122474670410 -11.044000625610352 0.238408520817757 0.000000000000000
2.752990484237671 -7.810574531555176 1.227343440055847 0.000000000000000
2.762142896652222 -11.184740066528320 1.044416308403015 0.000000000000000
2.764547586441040 -3.884493589401245 1.277530908584595 0.000000000000000
2.765083789825439 -11.372149467468262 0.110305964946747 0.000000000000000
2.767186403274536 -1.174088001251221 0.805444896221161 0.000000000000000
2.768323183059692 -4.082345962524414 0.843120872974396 0.000000000000000
2.771306753158569 -2.035801887512207 0.921395838260651 0.000000000000000
2.773594856262207 -7.782280921936035 1.224411368370056 0.000000000000000
2.773998975753784 -9.558129310607910 0.840985596179962 0.000000000000000
2.774781227111816 -13.289076805114746 0.937399506568909 0.000000000000000
2.777070283889771 -8.870321273803711 0.785413801670074 0.000000000000000
2.777430057525635 -12.356604576110840 1.045695543289185 0.000000000000000
2.783500909805298 -8.164331436157227 1.278360605239868 0.000000000000000
2.785829544067383 -12.404089927673340 1.556465029716492 0.000000000000000
2.790710926055908 -11.372014045715332 0.245277643203735 0.000000000000000
2.795054674148560 -13.976459503173828 3.819133996963501 0.000000000000000
2.808485269546509 -3.763484001159668 0.802683472633362 0.000000000000000
2.810928344726562 -8.763424873352051 0.777667462825775 0.000000000000000
2.825376987457275 -12.191448211669922 1.532160520553589 0.000000000000000
2.825903654098511 -9.150498390197754 0.772222816944122 0.000000000000000
2.826145172119141 -7.931478977203369 0.030860843136907 0.000000000000000
2.832586765289307 -1.431959629058838 0.542535841464996 0.000000000000000
2.833100795745850 -1.635559678077698 0.238508462905884 0.000000000000000
2.834145069122314 -12.813632011413574 0.350522398948669 0.000000000000000
2.839410543441772 -11.747482299804688 1.479662537574768 0.000000000000000
2.839729785919189 -3.885972976684570 1.001102924346924 0.000000000000000
2.843211174011230 -7.881780147552490 0.594729185104370 0.000000000000000
2.847375631332397 -13.700079917907715 1.490463733673096 0.000000000000000
2.848071813583374 -14.132497787475586 1.218199729919434 0.000000000000000
2.858954429626465 -2.180937767028809 0.614649295806885 0.000000000000000
2.862064123153687 -3.233610153198242 0.391475558280945 0.000000000000000
2.867367267608643 -2.187355279922485 0.262941032648087 0.000000000000000
2.867661952972412 -8.662894248962402 0.226202234625816 0.000000000000000
2.871112823486328 -13.626760482788086 2.896600484848022 0.000000000000000
2.876394033432007 -5.104360103607178 1.001500964164734 0.000000000000000
2.877318859100342 -11.367720603942871 0.990860879421234 0.000000000000000
2.877351284027100 -14.306149482727051 1.176659226417542 0.000000000000000
2.877811670303345 -10.528167724609375 2.270198345184326 0.000000000000000
2.877907276153564 -11.370044708251953 1.560763716697693 0.000000000000000
2.881064176559448 -8.671913146972656 0.331880360841751 0.000000000000000
2.906935214996338 -8.405160903930664 1.849881887435913 0.000000000000000
2.907323122024536 -12.605043411254883 1.068077445030212 0.000000000000000
2.910049438476562 -8.772459983825684 0.317911237478256 0.000000000000000
2.911286830902100 -11.458191871643066 0.839134514331818 0.000000000000000
2.913639545440674 -3.958035707473755 1.022281765937805 0.000000000000000
2.916416645050049 -14.243002891540527 1.651314616203308 0.000000000000000
2.918312788009644 -2.099493026733398 0.747772574424744 0.000000000000000
2.919552564620972 -11.367609977722168 1.561818957328796 0.000000000000000
2.922628164291382 -4.137107849121094 1.357247233390808 0.000000000000000
2.923145771026611 -9.008285522460938 0.635683774948120 0.000000000000000
2.926251411437988 -1.255523204803467 0.389845401048660 0.000000000000000
2.927326917648315 -3.349988222122192 0.925348162651062 0.000000000000000
2.934043407440186 -2.320329666137695 0.339110285043716 0.000000000000000
2.935557365417480 -3.384361743927002 0.931864738464355 0.000000000000000
2.939262866973877 -12.474797248840332 1.058203101158142 0.000000000000000
2.939339637756348 -2.249002218246460 0.227013960480690 1.000000000000000
2.941067934036255 -2.325884580612183 0.640933632850647 0.000000000000000
2.963236808776855 -12.702616691589355 1.026558876037598 0.000000000000000
2.967731475830078 -2.449716329574585 0.657782614231110 0.000000000000000
2.971022605895996 -14.591310501098633 3.989954471588135 0.000000000000000
2.972583770751953 -12.136934280395508 1.419281840324402 0.000000000000000
2.978051900863647 -13.251313209533691 0.964027583599091 0.000000000000000
2.979821920394897 -8.415222167968750 0.547576248645782 1.000000000000000
2.983128786087036 -12.992713928222656 1.049155116081238 0.000000000000000
2.984560251235962 -4.320071220397949 1.406940460205078 0.000000000000000
2.988553047180176 -3.102530002593994 0.896023750305176 0.000000000000000
2.991156339645386 -9.682003021240234 0.836688101291656 0.000000000000000
2.992879867553711 -1.739940047264099 0.205674514174461 0.000000000000000
2.993120193481445 -13.248093605041504 1.068926811218262 0.000000000000000
2.993936538696289 -14.157028198242188 1.541303992271423 0.000000000000000
2.993979930877686 -13.917068481445312 1.516307592391968 0.000000000000000
2.998988628387451 -0.861702561378479 0.313100606203079 0.000000000000000
3.003759145736694 -11.903935432434082 1.394453525543213 0.000000000000000
3.004553556442261 -2.785073041915894 0.436377972364426 0.000000000000000
3.006973028182983 -13.459040641784668 1.165322422981262 0.000000000000000
3.008338212966919 8.103025436401367 0.098060972988605 0.000000000000000
3.010816812515259 -14.172078132629395 1.224262118339539 0.000000000000000
3.017294645309448 -0.855571806430817 0.314698040485382 0.000000000000000
3.017379522323608 -14.558856964111328 1.141439199447632 0.000000000000000
3.018325567245483 -3.158276319503784 0.746744990348816 0.000000000000000
3.018656730651855 -13.293105125427246 0.941257059574127 0.000000000000000
3.019589185714722 -12.912596702575684 1.069280982017517 0.000000000000000
3.030804157257080 -14.025126457214355 1.212474226951599 0.000000000000000
3.031501531600952 8.078880310058594 0.230477541685104 0.000000000000000
3.032575607299805 -8.564202308654785 0.697478115558624 0.000000000000000
3.034257888793945 -9.240703582763672 0.652828216552734 0.000000000000000
3.037822484970093 -13.823708534240723 1.195971012115479 0.000000000000000
3.038691997528076 -14.176637649536133 1.378185272216797 0.000000000000000
3.039703130722046 -1.910796523094177 0.312856048345566 0.000000000000000
3.048236131668091 -10.641674041748047 0.764358103275299 0.000000000000000
3.050988674163818 -11.489050865173340 1.077641129493713 0.000000000000000
3.051343441009521 -4.399804592132568 0.915234327316284 0.000000000000000
3.051419258117676 -1.918904542922974 0.534214019775391 0.000000000000000
3.052714347839355 -14.126516342163086 1.923253536224365 0.000000000000000
3.060439586639404 -1.779216527938843 0.336502790451050 0.000000000000000
3.061264276504517 -13.167491912841797 2.811885595321655 0.000000000000000
3.062083005905151 -0.479071348905563 0.231952026486397 0.000000000000000
3.062459468841553 -12.866808891296387 0.887760639190674 0.000000000000000
3.076631546020508 -1.015235304832458 0.396650671958923 0.000000000000000
3.077366590499878 -8.555209159851074 1.209882140159607 0.000000000000000
3.079742431640625 -12.767173767089844 1.058993220329285 0.000000000000000
3.080752372741699 -5.658957958221436 0.857417583465576 0.000000000000000
3.084221839904785 -13.951202392578125 1.014154791831970 0.000000000000000
3.086853265762329 -2.079601764678955 0.636215925216675 0.000000000000000
3.099941015243530 -2.260598659515381 1.028029322624207 0.000000000000000
3.100896120071411 -9.667436599731445 0.388248234987259 0.000000000000000
3.102035522460938 -12.353363037109375 1.887634277343750 0.000000000000000
3.104490280151367 -13.895522117614746 0.983139693737030 0.000000000000000
3.105324268341064 -8.941390991210938 0.763221025466919 0.000000000000000
3.105451822280884 -2.420837640762329 0.287082731723785 0.000000000000000
3.108273744583130 -14.206982612609863 1.144561409950256 0.000000000000000
3.111706018447876 -11.396361351013184 0.497199624776840 0.000000000000000
3.112671613693237 -2.443981647491455 0.288537055253983 0.000000000000000
3.113152027130127 -11.801150321960449 1.494245290756226 0.000000000000000
3.118933439254761 -2.431347131729126 0.675979435443878 0.000000000000000
3.132062911987305 -11.814292907714844 1.009160399436951 0.000000000000000
3.134266614913940 -0.947544515132904 0.251373827457428 0.000000000000000
3.141026973724365 -11.996764183044434 1.124228119850159 0.000000000000000
3.147939205169678 -11.921204566955566 0.803817212581635 0.000000000000000
3.152014017105103 -9.011829376220703 0.126645758748055 0.000000000000000
3.155351877212524 -1.125556349754333 0.199032202363014 0.000000000000000
3.158929109573364 -11.700202941894531 1.216060280799866 0.000000000000000
3.158985376358032 -2.373730182647705 0.821898162364960 0.000000000000000
3.166064977645874 -1.998255968093872 0.425242871046066 0.000000000000000
3.170749187469482 -2.312234878540039 0.393771916627884 0.000000000000000
3.173243761062622 -6.462542533874512 1.230646491050720 0.000000000000000
3.173694372177124 -13.788495063781738 1.607074975967407 0.000000000000000
3.178880929946899 -11.903627395629883 1.399419188499451 0.000000000000000
3.187835454940796 -1.976849675178528 0.555910944938660 0.000000000000000
3.189815521240234 -1.064945578575134 0.411719530820847 0.000000000000000
3.191364526748657 -13.744495391845703 1.279157042503357 0.000000000000000
3.192470788955688 -12.860707283020020 1.042878389358521 0.000000000000000
3.192511796951294 -0.800837218761444 0.402969866991043 0.000000000000000
3.192739725112915 -2.262593746185303 0.340981870889664 0.000000000000000
3.193068265914917 -12.615183830261230 0.898547828197479 0.000000000000000
3.203672885894775 -12.434226036071777 1.060177922248840 0.000000000000000
3.203941822052002 -11.734168052673340 0.886844277381897 0.000000000000000
3.204805612564087 -3.015939712524414 1.179179668426514 0.000000000000000
3.205104589462280 -12.851148605346680 1.119181036949158 0.000000000000000
3.214195013046265 -11.630991935729980 0.996323704719543 0.000000000000000
3.221986055374146 -8.489077568054199 1.208299279212952 0.000000000000000
3.227556467056274 -11.631099700927734 0.183298602700233 0.000000000000000
3.230249881744385 -11.373024940490723 1.752174973487854 0.000000000000000
3.231243133544922 -4.948782920837402 1.010262370109558 0.000000000000000
3.241137266159058 -0.522976100444794 0.436887234449387 0.000000000000000
3.241921663284302 -14.133429527282715 3.885391712188721 0.000000000000000
3.244963645935059 -12.078315734863281 1.531188249588013 0.000000000000000
3.245317697525024 -2.584958076477051 0.302498549222946 0.000000000000000
3.247400283813477 -13.985828399658203 1.046819448471069 0.000000000000000
3.248711585998535 -11.736739158630371 1.104004383087158 0.000000000000000
3.252566099166870 -14.095145225524902 0.998845696449280 0.000000000000000
3.253126621246338 -3.701392412185669 0.446729928255081 0.000000000000000
3.253731250762939 -12.822853088378906 1.619657039642334 0.000000000000000
3.255006790161133 -14.105722427368164 1.223251700401306 0.000000000000000
3.260579109191895 -2.578563690185547 0.303080260753632 0.000000000000000
3.262185335159302 -13.766740798950195 1.506986856460571 0.000000000000000
3.269791364669800 -11.458954811096191 0.295391172170639 0.000000000000000
3.270133256912231 -14.018200874328613 1.533254265785217 0.000000000000000
3.274010896682739 -12.223894119262695 0.483934581279755 0.000000000000000
3.281827926635742 -2.484008073806763 0.856109976768494 0.000000000000000
3.284430503845215 -0.597355902194977 0.302635163068771 0.000000000000000
3.287164688110352 -2.003502368927002 0.800719439983368 0.000000000000000
3.287893295288086 -10.605735778808594 0.083333805203438 0.000000000000000
3.295023679733276 -12.766639709472656 0.961305439472198 0.000000000000000
3.296116828918457 -12.589110374450684 0.948798239231110 0.000000000000000
3.296546697616577 -12.482221603393555 1.718000888824463 0.000000000000000
3.301050424575806 -3.038556575775146 0.477897405624390 0.000000000000000
3.304721117019653 -0.517032742500305 0.317955404520035 0.000000000000000
3.309520483016968 -13.675744056701660 0.971566915512085 0.000000000000000
3.310220718383789 -13.755269050598145 1.506986856460571 0.000000000000000
3.320873260498047 -12.932075500488281 0.870433330535889 0.000000000000000
3.327330112457275 -11.616016387939453 0.462076544761658 0.000000000000000
3.328027963638306 -0.897223174571991 0.251306474208832 0.000000000000000
3.338037490844727 -12.918390274047852 0.998558044433594 0.000000000000000
3.339023113250732 -0.836970210075378 0.716004490852356 0.000000000000000
3.343196868896484 -11.861210823059082 0.779639005661011 0.000000000000000
3.349302291870117 -1.915990352630615 0.366784274578094 0.000000000000000
3.352592229843140 -12.012486457824707 1.053842186927795 0.000000000000000
3.358183383941650 -12.210118293762207 0.849989295005798 0.000000000000000
3.360251426696777 -3.687951326370239 1.037758469581604 0.000000000000000
3.365622520446777 -2.431026697158813 0.318733423948288 0.000000000000000
3.367397785186768 -3.197551965713501 0.338565647602081 0.000000000000000
3.372609138488770 -5.204890727996826 1.060135245323181 0.000000000000000
3.375291585922241 -11.491948127746582 0.250890195369720 0.000000000000000
3.375686883926392 -13.111323356628418 1.657572031021118 0.000000000000000
3.380042552947998 -11.949591636657715 0.857491850852966 0.000000000000000
3.383910179138184 -1.708742856979370 0.788500905036926 0.000000000000000
3.384891033172607 -11.667586326599121 0.815432548522949 0.000000000000000
3.386769056320190 -3.743217706680298 1.049976944923401 0.000000000000000
3.391200065612793 -12.937527656555176 1.000946164131165 0.000000000000000
3.391716957092285 -12.102083206176758 0.892093718051910 0.000000000000000
3.393874406814575 -2.032881736755371 0.396966814994812 0.000000000000000
3.396339416503906 -11.898498535156250 0.973834395408630 0.000000000000000
3.407466173171997 -3.237409830093384 0.333614736795425 1.000000000000000
3.408307075500488 -1.737967967987061 0.278938561677933 0.000000000000000
3.409044981002808 -11.786972999572754 0.965674638748169 0.000000000000000
3.412862777709961 -1.755328893661499 0.279811143875122 0.000000000000000
3.413379430770874 -12.939234733581543 0.898208081722260 0.000000000000000
3.415139198303223 -2.720224142074585 0.395809233188629 0.000000000000000
3.417890071868896 -13.117730140686035 1.145451307296753 0.000000000000000
3.423373222351074 -0.870825469493866 0.734739542007446 0.000000000000000
3.426291942596436 -9.949542045593262 0.523864388465881 0.000000000000000
3.426709413528442 -1.584233045578003 0.785242676734924 0.000000000000000
3.431094884872437 -8.488847732543945 1.904457807540894 0.000000000000000
3.435857772827148 -9.693958282470703 0.254948347806931 0.000000000000000
3.437271118164062 -1.097369670867920 0.480153799057007 0.000000000000000
3.438853740692139 -11.563408851623535 0.044216770678759 0.000000000000000
3.444303989410400 -6.953125953674316 1.326348423957825 1.000000000000000
3.455651044845581 -1.246291518211365 0.218247473239899 0.000000000000000
3.462764739990234 -1.118843078613281 0.307496935129166 0.000000000000000
3.467405319213867 -14.112487792968750 1.227966904640198 0.000000000000000
3.476389646530151 -5.069732666015625 1.647124528884888 0.000000000000000
3.485237836837769 -14.211831092834473 1.123374581336975 0.000000000000000
3.490697383880615 -12.691929817199707 1.086838722229004 0.000000000000000
3.491951465606689 -0.671306192874908 0.739626884460449 0.000000000000000
3.492998838424683 -1.356388092041016 0.356185764074326 0.000000000000000
3.493685007095337 -0.575619697570801 0.471183925867081 0.000000000000000
3.493838548660278 -13.759027481079102 1.172087430953979 0.000000000000000
3.496622800827026 -12.361742019653320 1.709558725357056 0.000000000000000
3.497535705566406 -1.530798912048340 0.278356820344925 0.000000000000000
3.511269807815552 -13.093267440795898 0.049685224890709 0.000000000000000
3.519135475158691 -8.779794692993164 1.616824269294739 0.000000000000000
3.525895357131958 -11.412887573242188 0.801770508289337 0.000000000000000
3.530781030654907 -2.282329559326172 0.447816997766495 0.000000000000000
3.533605098724365 -13.561839103698730 0.967709243297577 0.000000000000000
3.535527944564819 -7.075084686279297 1.351958870887756 0.000000000000000
3.535766601562500 -13.995805740356445 0.968928873538971 0.000000000000000
3.545247554779053 -1.549764871597290 0.289566904306412 0.000000000000000
3.545309782028198 -13.657547950744629 1.137758731842041 0.000000000000000
3.548304557800293 -7.763770103454590 1.459118127822876 0.000000000000000
3.549319028854370 -11.930284500122070 1.523896932601929 0.000000000000000
3.554086685180664 -1.705426931381226 0.279805898666382 0.000000000000000
3.554673433303833 -12.856062889099121 0.946752190589905 0.000000000000000
3.599336147308350 -1.711246490478516 0.290573120117188 0.000000000000000
3.600748538970947 -3.741469860076904 0.887602090835571 0.000000000000000
3.607112407684326 -12.385093688964844 1.579311251640320 0.000000000000000
3.608561038970947 -2.784890413284302 0.485523432493210 0.000000000000000
3.615808486938477 -13.170194625854492 0.259853392839432 0.000000000000000
3.620896100997925 -13.751174926757812 0.052118904888630 0.000000000000000
3.623275995254517 -13.161393165588379 0.889949738979340 0.000000000000000
3.623597145080566 -13.030050277709961 0.647263467311859 0.000000000000000
3.627663373947144 -11.598582267761230 0.815700411796570 0.000000000000000
3.630956172943115 -10.875747680664062 0.482566207647324 0.000000000000000
3.639387369155884 -6.578077793121338 1.000408411026001 0.000000000000000
3.642107725143433 -8.855710983276367 1.419097542762756 0.000000000000000
3.649530410766602 -1.671039462089539 0.381546467542648 0.000000000000000
3.655343294143677 -2.841408729553223 0.493149459362030 0.000000000000000
3.659348487854004 -12.488910675048828 0.823331177234650 0.000000000000000
3.665191411972046 -10.796067237854004 0.392163902521133 0.000000000000000
3.667248964309692 -11.297362327575684 1.003659248352051 0.000000000000000
3.669364213943481 -1.607225894927979 0.284337192773819 0.000000000000000
3.672566890716553 -2.428883552551270 0.469000369310379 0.000000000000000
3.681329488754272 -10.696208953857422 0.737461268901825 0.000000000000000
3.681728124618530 -8.902534484863281 2.003834962844849 0.000000000000000
3.682491779327393 -13.943584442138672 0.995814681053162 0.000000000000000
3.684104681015015 -8.820969581604004 1.988358259201050 0.000000000000000
3.686041593551636 -13.426012039184570 1.122648596763611 0.000000000000000
3.688089370727539 -10.957668304443359 0.575574576854706 0.000000000000000
3.690838813781738 -8.515974044799805 1.586496114730835 0.000000000000000
3.691677808761597 -11.937684059143066 1.055863022804260 0.000000000000000
3.692014932632446 -12.240894317626953 0.882841885089874 0.000000000000000
3.701411962509155 -6.684124946594238 1.132346034049988 0.000000000000000
3.711821079254150 -13.961815834045410 3.004937887191772 0.000000000000000
3.715659379959106 -11.588204383850098 0.254911154508591 0.000000000000000
3.719773054122925 -9.208610534667969 1.471873998641968 0.000000000000000
3.720351934432983 -13.199305534362793 1.079283356666565 0.000000000000000
3.720768213272095 -12.222709655761719 1.005531907081604 0.000000000000000
3.725023269653320 -3.319107294082642 1.037758469581604 0.000000000000000
3.734096050262451 -11.239512443542480 1.450010895729065 0.000000000000000
3.734951972961426 -11.469108581542969 1.476745963096619 0.000000000000000
3.758515834808350 -2.817770242691040 0.369699299335480 0.000000000000000
3.767787694931030 -5.313175678253174 1.113377928733826 0.000000000000000
3.775267839431763 -12.305311203002930 1.907572031021118 0.000000000000000
3.775716543197632 -13.577054023742676 1.501055479049683 0.000000000000000
3.783238649368286 -3.161146879196167 1.321012377738953 0.000000000000000
3.787130594253540 -1.455411672592163 0.843891441822052 0.000000000000000
3.792366743087769 -7.390563964843750 1.105409026145935 0.000000000000000
3.796762466430664 -2.806278467178345 0.502893805503845 0.000000000000000
3.800882577896118 -0.744463443756104 0.805606782436371 0.000000000000000
3.801091194152832 -11.704115867614746 0.802255868911743 0.000000000000000
3.801111459732056 -3.363175630569458 1.055678844451904 0.000000000000000
3.807514905929565 -11.870409965515137 1.658905029296875 0.000000000000000
3.807779073715210 -2.088241100311279 1.163650512695312 0.000000000000000
3.814683198928833 -2.075602531433105 1.163650512695312 0.000000000000000
3.821458578109741 -11.918165206909180 0.840077698230743 0.000000000000000
3.824594974517822 -12.723025321960449 0.840504884719849 0.000000000000000
3.826955318450928 -13.751077651977539 1.150939822196960 0.000000000000000
3.837532281875610 -11.510554313659668 1.485495686531067 0.000000000000000
3.838686704635620 -12.413063049316406 0.897170066833496 0.000000000000000
3.853877544403076 -0.779108166694641 0.309442698955536 0.000000000000000
3.858269929885864 -10.969590187072754 0.422327220439911 0.000000000000000
3.858333826065063 -4.160208225250244 0.755055069923401 0.000000000000000
3.859289407730103 -11.367795944213867 0.968011140823364 0.000000000000000
3.867487192153931 -2.398317337036133 0.396538972854614 0.000000000000000
3.886570692062378 -11.523422241210938 1.488898396492004 0.000000000000000
3.900976181030273 -13.098921775817871 0.943736970424652 0.000000000000000
3.908269643783569 -6.216328620910645 1.527313232421875 0.000000000000000
3.914566278457642 -12.996817588806152 0.258255451917648 0.000000000000000
3.917369127273560 -6.182799816131592 1.522425889968872 0.000000000000000
3.920404911041260 -2.426398754119873 0.401747465133667 0.000000000000000
3.923299312591553 -2.542177438735962 0.444380521774292 0.000000000000000
3.928970575332642 -5.971741676330566 1.221885085105896 0.000000000000000
3.930500745773315 -10.203092575073242 2.274271249771118 0.000000000000000
3.941989660263062 -11.745927810668945 0.235732302069664 0.000000000000000
3.944599151611328 -3.253064155578613 0.486017525196075 0.000000000000000
3.945716142654419 -7.623778343200684 1.142343997955322 0.000000000000000
3.949214220046997 -3.464709281921387 0.527159154415131 0.000000000000000
3.952701330184937 -2.905035018920898 0.427442640066147 0.000000000000000
3.954010486602783 -7.206017017364502 1.093801021575928 1.000000000000000
3.956696271896362 -1.964293241500854 0.918831646442413 0.000000000000000
3.958209991455078 -12.972628593444824 0.492594093084335 0.000000000000000
3.965564250946045 -10.569252014160156 1.673010468482971 0.000000000000000
3.986988067626953 -4.631702899932861 1.044634222984314 0.000000000000000
