# This PCD file was generated using the MATLAB® pcwrite function
# from Computer Vision Toolbox®.
# .PCD v.7 - Point Cloud Data file format
VERSION .7
FIELDS x y z intensity
SIZE 8 8 8 8
TYPE F F F F
COUNT 1 1 1 1
WIDTH 653
HEIGHT 1
VIEWPOINT 0 0 0 1 0 0 0
POINTS 653
DATA ascii
6.589545249938965 -5.781317710876465 0.723791182041168 0.000000000000000
6.589890956878662 -7.098023891448975 0.818420052528381 0.000000000000000
6.594523429870605 -5.546813011169434 0.628266155719757 0.000000000000000
6.598252296447754 -4.185440063476562 0.887502610683441 0.000000000000000
6.601875782012939 -5.469702720642090 0.814949989318848 0.000000000000000
6.603902816772461 -2.844226598739624 1.926648974418640 0.000000000000000
6.605832099914551 -5.387968540191650 0.244067057967186 0.000000000000000
6.608288764953613 -0.980305969715118 0.605631411075592 0.000000000000000
6.611040592193604 -2.796964883804321 1.493101358413696 0.000000000000000
6.612153530120850 -5.716324329376221 1.295366287231445 0.000000000000000
6.616894245147705 -2.607931375503540 0.713661670684814 0.000000000000000
6.617123603820801 -5.846517562866211 0.729057490825653 0.000000000000000
6.619141578674316 -2.750946521759033 1.225254893302917 0.000000000000000
6.621321678161621 -5.968983173370361 1.321168065071106 0.000000000000000
6.623454093933105 -4.370516300201416 0.624534487724304 0.000000000000000
6.627225875854492 -2.163678884506226 0.535202682018280 0.000000000000000
6.631068706512451 -1.867531061172485 0.733792841434479 0.000000000000000
6.635938644409180 -1.949791073799133 1.025034070014954 0.000000000000000
6.636724948883057 -7.100103855133057 0.802456974983215 0.000000000000000
6.644525527954102 -1.117754817008972 0.717693507671356 0.000000000000000
6.646207332611084 -5.669981002807617 0.791979551315308 0.000000000000000
6.647046089172363 -7.283017158508301 1.461318612098694 0.000000000000000
6.648552417755127 -6.055235385894775 1.196691036224365 0.000000000000000
6.653741836547852 -7.399591445922852 0.902127206325531 0.000000000000000
6.654003620147705 -2.107451438903809 1.034416556358337 0.000000000000000
6.656635284423828 -1.296089291572571 1.159206986427307 0.000000000000000
6.665885925292969 -2.500497341156006 0.422973096370697 0.000000000000000
6.667246341705322 -4.617998123168945 1.386330723762512 0.000000000000000
6.667360305786133 -7.032319545745850 1.289555907249451 0.000000000000000
6.667601585388184 -8.038584709167480 1.389807820320129 0.000000000000000
6.668004989624023 -2.917476892471313 0.446436285972595 0.000000000000000
6.669188976287842 -1.468513011932373 1.167294502258301 0.000000000000000
6.671004772186279 -1.223636507987976 0.590988874435425 0.000000000000000
6.675311565399170 -5.332838535308838 0.524066746234894 0.000000000000000
6.679093837738037 -7.222367763519287 1.681524157524109 0.000000000000000
6.679553508758545 -0.930191934108734 0.231970697641373 0.000000000000000
6.681251525878906 -2.881826162338257 1.513465523719788 0.000000000000000
6.682968616485596 -0.921157360076904 1.153141379356384 0.000000000000000
6.684519290924072 -11.578859329223633 2.780931949615479 0.000000000000000
6.691580295562744 -7.593847274780273 1.500021219253540 0.000000000000000
6.693396568298340 -7.525186061859131 1.143912315368652 0.000000000000000
6.700133323669434 -1.477288603782654 1.016824483871460 0.000000000000000
6.702942848205566 -4.112075805664062 0.712889969348907 0.000000000000000
6.707559108734131 -8.144447326660156 1.404054164886475 0.000000000000000
6.708118915557861 -7.380403041839600 0.362222909927368 0.000000000000000
6.717546939849854 -2.025844573974609 0.666949272155762 0.000000000000000
6.718247890472412 -1.206503510475159 0.684907555580139 0.000000000000000
6.719839572906494 -5.040631771087646 1.244935631752014 0.000000000000000
6.722521781921387 -2.920106649398804 0.463692009449005 0.000000000000000
6.723774433135986 -5.367325782775879 0.916393756866455 0.000000000000000
6.725154876708984 -2.938986778259277 0.976664543151855 0.000000000000000
6.729253768920898 -2.392739295959473 1.058459043502808 0.000000000000000
6.730388641357422 -1.627506375312805 1.026206851005554 0.000000000000000
6.737267017364502 -3.190735816955566 0.615502297878265 0.000000000000000
6.740851879119873 -5.561868190765381 0.603440582752228 0.000000000000000
6.740919589996338 -4.359561443328857 0.763092935085297 0.000000000000000
6.741488456726074 -1.918836832046509 0.565182209014893 0.000000000000000
6.742200851440430 -4.658256530761719 2.195820808410645 0.000000000000000
6.745403289794922 -5.633634090423584 1.502251386642456 0.000000000000000
6.750334262847900 -4.601658821105957 0.485363394021988 0.000000000000000
6.751326084136963 -5.454639911651611 1.155007362365723 0.000000000000000
6.753111362457275 -5.745112419128418 0.560925900936127 0.000000000000000
6.758028984069824 -5.765377521514893 1.518426299095154 0.000000000000000
6.759333610534668 -1.903654813766479 0.552665889263153 0.000000000000000
6.759694099426270 -4.119012832641602 0.668881595134735 0.000000000000000
6.762338161468506 -7.232968330383301 0.531061053276062 0.000000000000000
6.764552116394043 -4.650538444519043 1.403179526329041 0.000000000000000
6.767571449279785 -5.313323020935059 1.144982218742371 0.000000000000000
6.772314548492432 -5.265271663665771 1.271323800086975 0.000000000000000
6.776710033416748 -5.332553386688232 0.918512105941772 0.000000000000000
6.778639793395996 -2.351422548294067 1.922508001327515 0.000000000000000
6.780049800872803 -7.327429294586182 0.948945462703705 0.000000000000000
6.781210422515869 -2.950102567672729 1.981518626213074 0.000000000000000
6.784277439117432 -5.623220443725586 1.305921554565430 0.000000000000000
6.785518646240234 -2.521894216537476 1.237386107444763 0.000000000000000
6.786059856414795 -7.826311111450195 1.268212795257568 0.000000000000000
6.788594722747803 -4.496339797973633 0.738169729709625 0.000000000000000
6.791944980621338 -5.669688701629639 1.311199188232422 0.000000000000000
6.795547962188721 -3.850687503814697 1.335109949111938 0.000000000000000
6.796068191528320 -3.332889556884766 1.121790766716003 0.000000000000000
6.804606914520264 -2.059097766876221 0.946061313152313 0.000000000000000
6.822760105133057 -4.412490367889404 0.608090519905090 0.000000000000000
6.823685646057129 -5.392504692077637 0.432973712682724 1.000000000000000
6.842370986938477 -2.289292335510254 0.768533647060394 0.000000000000000
6.846453666687012 -2.238956451416016 0.767262637615204 0.000000000000000
6.851105213165283 -1.764929056167603 0.597817122936249 0.000000000000000
6.852670192718506 -2.192370414733887 0.552348792552948 0.000000000000000
6.855054378509521 -2.777696847915649 0.840102910995483 0.000000000000000
6.859619617462158 -2.963022947311401 0.914824247360229 0.000000000000000
6.868849754333496 -2.469146728515625 0.602665603160858 0.000000000000000
6.871157169342041 -4.386857032775879 1.084830999374390 0.000000000000000
6.872813701629639 -3.017096996307373 0.460395097732544 0.000000000000000
6.879257678985596 -5.293534278869629 0.985913336277008 0.000000000000000
6.884836196899414 -2.397284269332886 1.246147513389587 0.000000000000000
6.886617660522461 -4.187787055969238 1.194504857063293 0.000000000000000
6.894703865051270 -1.665966510772705 0.618072986602783 0.000000000000000
6.904104709625244 -1.799413919448853 0.646801352500916 0.000000000000000
6.905077457427979 -5.607202529907227 1.520448207855225 0.000000000000000
6.909573554992676 -2.079676866531372 0.724045097827911 0.000000000000000
6.918264389038086 -0.993486225605011 0.307600975036621 0.000000000000000
6.918453216552734 -7.557048320770264 1.363425731658936 0.000000000000000
6.922302246093750 -0.789431035518646 0.588723540306091 0.000000000000000
6.928326129913330 -4.244685649871826 0.708006083965302 0.000000000000000
6.948921203613281 -2.794998407363892 0.575006127357483 0.000000000000000
6.950395584106445 -1.098471999168396 0.706073820590973 0.000000000000000
6.963451862335205 -1.852570772171021 0.818434536457062 0.000000000000000
6.975856781005859 -1.504537940025330 1.912155270576477 0.000000000000000
6.987579822540283 -7.318731307983398 1.346541166305542 0.000000000000000
6.996119022369385 -1.820266485214233 1.071359992027283 0.000000000000000
6.999723911285400 -4.080317497253418 0.863011598587036 0.000000000000000
7.000221729278564 -2.542892456054688 0.648976683616638 0.000000000000000
7.001681804656982 -2.578059911727905 0.529592156410217 0.000000000000000
7.006658554077148 -2.384988307952881 0.311506658792496 0.000000000000000
7.011737823486328 -3.074873447418213 0.602565884590149 0.000000000000000
7.014029026031494 -2.469754219055176 1.271083950996399 0.000000000000000
7.016420364379883 -0.725819051265717 0.378319412469864 0.000000000000000
7.023378849029541 -4.174821376800537 0.740697741508484 0.000000000000000
7.025089740753174 -6.703476428985596 0.707962870597839 0.000000000000000
7.025888919830322 -2.639178514480591 0.680387377738953 0.000000000000000
7.029675483703613 -1.572864413261414 0.594766080379486 0.000000000000000
7.030404567718506 -8.320538520812988 1.614369988441467 0.000000000000000
7.035163402557373 -2.495566368103027 2.000153541564941 0.000000000000000
7.047122955322266 -8.030611991882324 1.308072328567505 0.000000000000000
7.059148788452148 -1.320318579673767 1.064323067665100 0.000000000000000
7.061196327209473 -2.624352216720581 0.682915329933167 0.000000000000000
7.061524868011475 -4.821381092071533 0.606906950473785 0.000000000000000
7.072516441345215 -4.520976066589355 0.953410685062408 0.000000000000000
7.075745582580566 -0.686053514480591 0.573219478130341 0.000000000000000
7.081794738769531 -4.272348880767822 0.786182582378387 0.000000000000000
7.082753658294678 -0.826017379760742 0.873020410537720 0.000000000000000
7.085315227508545 -2.528820991516113 0.504957437515259 0.000000000000000
7.087738037109375 -4.759530544281006 0.811543285846710 0.000000000000000
7.087841033935547 -2.467970132827759 0.680387377738953 0.000000000000000
7.090731620788574 -0.666400969028473 0.560511827468872 0.000000000000000
7.094612598419189 -7.749467372894287 0.887800574302673 0.000000000000000
7.095806598663330 -0.784136593341827 0.492947578430176 0.000000000000000
7.097778797149658 -8.118584632873535 0.977605402469635 0.000000000000000
7.098548412322998 -0.694893002510071 0.327626347541809 0.000000000000000
7.098844528198242 -8.750093460083008 1.279791355133057 0.000000000000000
7.099294185638428 -8.621937751770020 1.367375493049622 0.000000000000000
7.101801872253418 -4.322718143463135 0.606160521507263 0.000000000000000
7.102959632873535 -2.025877952575684 0.786751329898834 0.000000000000000
7.109585285186768 -6.855581283569336 1.121792435646057 0.000000000000000
7.110844612121582 -8.309270858764648 1.620820522308350 0.000000000000000
7.118160724639893 -8.750153541564941 1.380985975265503 0.000000000000000
7.120005130767822 -8.815099716186523 1.387305140495300 0.000000000000000
7.124013423919678 -6.766582489013672 1.307495832443237 1.000000000000000
7.130198955535889 -4.592986583709717 0.963342070579529 0.000000000000000
7.130285739898682 -0.787946760654449 0.384746134281158 0.000000000000000
7.132687568664551 -4.167004108428955 0.719812035560608 0.000000000000000
7.134657382965088 -2.296458244323730 0.503082275390625 0.000000000000000
7.141463279724121 -7.481474399566650 1.266268372535706 0.000000000000000
7.143988609313965 -4.837207317352295 1.056276917457581 0.000000000000000
7.151375293731689 -8.172402381896973 2.258794546127319 0.000000000000000
7.153878688812256 -0.664400815963745 0.956086456775665 0.000000000000000
7.154445171356201 -2.465428352355957 0.659393608570099 0.000000000000000
7.163805961608887 -11.913626670837402 3.724924087524414 0.000000000000000
7.164402008056641 -0.364938676357269 0.384746134281158 0.000000000000000
7.170127391815186 -2.327225446701050 0.622414290904999 0.000000000000000
7.170718669891357 -4.600692749023438 0.742382049560547 0.000000000000000
7.172973632812500 -8.904817581176758 1.298751235008240 0.000000000000000
7.173642635345459 -12.024830818176270 3.751840829849243 0.000000000000000
7.177269458770752 -8.144451141357422 2.257979869842529 0.000000000000000
7.181178569793701 -4.549582481384277 1.131263494491577 0.000000000000000
7.185708522796631 -5.001826763153076 2.345935821533203 0.000000000000000
7.193465232849121 -4.094598293304443 0.881652951240540 0.000000000000000
7.197319507598877 -2.212947130203247 0.578067958354950 0.000000000000000
7.224154472351074 -6.791529178619385 0.942510604858398 0.000000000000000
7.225003719329834 -5.055432319641113 0.676964104175568 0.000000000000000
7.229893684387207 -11.519185066223145 1.809810519218445 0.000000000000000
7.253202915191650 -1.537879228591919 1.986695170402527 0.000000000000000
7.256428718566895 -1.939061164855957 2.012577056884766 0.000000000000000
7.259981155395508 -1.441202282905579 0.670997738838196 0.000000000000000
7.262734413146973 -1.513428330421448 0.744412600994110 0.000000000000000
7.263335704803467 -0.957783758640289 0.378822028636932 0.000000000000000
7.265055179595947 -8.476584434509277 1.120213150978088 0.000000000000000
7.272794246673584 -7.603101253509521 1.288142561912537 0.000000000000000
7.278959274291992 -4.361199855804443 0.618667662143707 0.000000000000000
7.285276889801025 -1.054756999015808 1.258278727531433 0.000000000000000
7.293430805206299 -2.558554172515869 0.775562942028046 0.000000000000000
7.293504238128662 -2.351240158081055 0.617906808853149 0.000000000000000
7.293714523315430 -5.083246231079102 0.774674713611603 0.000000000000000
7.306780338287354 -2.755320072174072 0.599500536918640 0.000000000000000
7.311327934265137 -4.445706844329834 1.779829144477844 0.000000000000000
7.314095020294189 -8.229091644287109 1.172712802886963 0.000000000000000
7.315077781677246 -4.197696208953857 0.663763999938965 0.000000000000000
7.315801620483398 -7.511978149414062 0.683595895767212 0.000000000000000
7.322127819061279 -1.202718734741211 0.483747541904449 0.000000000000000
7.340810298919678 -6.927795886993408 0.833396613597870 0.000000000000000
7.344993591308594 -2.406532526016235 0.775562942028046 0.000000000000000
7.349141120910645 -6.693303585052490 0.686379253864288 0.000000000000000
7.353110790252686 -0.901676058769226 0.340290874242783 0.000000000000000
7.357222557067871 -4.202954769134521 1.448334813117981 0.000000000000000
7.378652095794678 -2.959918498992920 0.641054213047028 0.000000000000000
7.381174087524414 -2.628027439117432 0.450395047664642 0.000000000000000
7.381822109222412 -8.596715927124023 1.287014245986938 0.000000000000000
7.385499954223633 -6.949527740478516 0.739376187324524 0.000000000000000
7.388747215270996 -4.220963954925537 0.620412886142731 0.000000000000000
7.390211582183838 -1.520756721496582 0.683998763561249 0.000000000000000
7.390457153320312 -7.580159664154053 1.408802986145020 0.000000000000000
7.391396999359131 -7.634259700775146 0.897904515266418 0.000000000000000
7.392758369445801 -8.210778236389160 1.108631610870361 0.000000000000000
7.402235984802246 -2.284439325332642 2.075728893280029 0.000000000000000
7.402346134185791 -2.582985877990723 0.662482440471649 0.000000000000000
7.409593582153320 -0.379502803087234 0.497992485761642 0.000000000000000
7.414407730102539 -1.424569010734558 0.521328568458557 0.000000000000000
7.430900573730469 -2.506839275360107 0.526387989521027 0.000000000000000
7.440085411071777 -7.492469787597656 1.059509992599487 0.000000000000000
7.441176414489746 -7.685674667358398 1.423576951026917 0.000000000000000
7.443580150604248 -4.306045532226562 0.915970087051392 0.000000000000000
7.446084976196289 -1.633177518844604 2.042599916458130 0.000000000000000
7.450205802917480 -0.992878615856171 0.345246583223343 0.000000000000000
7.454794883728027 -1.089131593704224 0.389562875032425 0.000000000000000
7.465008258819580 -1.322193980216980 1.123549938201904 0.000000000000000
7.466718673706055 -5.256659030914307 1.215158581733704 0.000000000000000
7.481378078460693 -1.512315511703491 0.691943824291229 0.000000000000000
7.482505321502686 -6.633476257324219 0.806300878524780 0.000000000000000
7.485059738159180 -7.449088096618652 0.871906697750092 0.000000000000000
7.486302852630615 -4.158099174499512 0.912157058715820 0.000000000000000
7.488296031951904 -3.181986808776855 0.671786189079285 0.000000000000000
7.499458789825439 -7.099824905395508 0.772874951362610 0.000000000000000
7.506771087646484 -4.393283843994141 1.486750364303589 0.000000000000000
7.512429714202881 -7.660199165344238 0.865133881568909 0.000000000000000
7.520549774169922 -2.893195390701294 0.540853559970856 0.000000000000000
7.524533271789551 -4.404736995697021 0.759743690490723 0.000000000000000
7.529211997985840 -8.916562080383301 2.427409887313843 0.000000000000000
7.531855583190918 -7.038821697235107 0.851170539855957 0.000000000000000
7.533923149108887 -7.659084320068359 0.887047410011292 0.000000000000000
7.534195899963379 -2.452080011367798 0.516535162925720 0.000000000000000
7.540796279907227 -7.507178306579590 1.302725195884705 0.000000000000000
7.543968677520752 -0.788776397705078 0.807934701442719 0.000000000000000
7.544314384460449 -2.599777698516846 0.443340063095093 0.000000000000000
7.546220779418945 -4.613286495208740 0.696089208126068 0.000000000000000
7.552900314331055 -6.180655956268311 0.692717850208282 0.000000000000000
7.553899765014648 -1.078845858573914 0.379871308803558 0.000000000000000
7.555438041687012 -6.583601474761963 0.730650305747986 0.000000000000000
7.556843280792236 -4.244518756866455 1.061137795448303 0.000000000000000
7.556890010833740 -6.917822360992432 0.845904171466827 0.000000000000000
7.561409473419189 -4.210700511932373 1.800193190574646 0.000000000000000
7.561920166015625 -0.411656796932220 0.406168520450592 0.000000000000000
7.563352108001709 -2.594087123870850 0.802320241928101 0.000000000000000
7.564424514770508 -2.875872850418091 1.076916456222534 0.000000000000000
7.565781116485596 -4.400207996368408 0.587465047836304 0.000000000000000
7.567060470581055 -7.749382972717285 1.326057672500610 0.000000000000000
7.579793453216553 -7.666542530059814 1.434657335281372 0.000000000000000
7.580630779266357 -6.744133472442627 0.919823050498962 0.000000000000000
7.585742950439453 -6.425897121429443 0.724833011627197 0.000000000000000
7.593066692352295 -7.113424777984619 0.698368132114410 0.000000000000000
7.600505828857422 -8.253336906433105 1.274374365806580 0.000000000000000
7.615775108337402 -1.222712635993958 0.592152237892151 0.000000000000000
7.630947589874268 -6.197523117065430 1.203562617301941 0.000000000000000
7.641938686370850 -2.088877677917480 0.638803780078888 0.000000000000000
7.646818161010742 -1.168488621711731 0.504304885864258 0.000000000000000
7.650320529937744 -0.418611824512482 0.396172642707825 0.000000000000000
7.655835151672363 -4.481598854064941 1.314717650413513 0.000000000000000
7.658716678619385 -6.175833702087402 1.204534769058228 0.000000000000000
7.666126728057861 -1.035956025123596 1.029428720474243 0.000000000000000
7.670905590057373 -1.448323249816895 0.523977041244507 0.000000000000000
7.673646450042725 -8.681413650512695 0.979072868824005 0.000000000000000
7.686308383941650 -4.641802310943604 0.814009130001068 0.000000000000000
7.687461853027344 -8.286604881286621 0.911428630352020 0.000000000000000
7.693072319030762 -1.178854346275330 0.282664537429810 0.000000000000000
7.700756549835205 -2.938938856124878 0.648699879646301 0.000000000000000
7.702891826629639 -0.771702289581299 0.474843651056290 0.000000000000000
7.703667163848877 -2.297734022140503 0.728780090808868 0.000000000000000
7.717853546142578 -6.692961692810059 1.250713467597961 0.000000000000000
7.718141555786133 -2.451007843017578 0.403140902519226 0.000000000000000
7.718576908111572 -8.693946838378906 3.115146160125732 0.000000000000000
7.721378803253174 -2.296121120452881 0.808310747146606 0.000000000000000
7.722348690032959 -1.019546031951904 0.477782338857651 0.000000000000000
7.737214088439941 -4.208661079406738 1.305335164070129 0.000000000000000
7.746616840362549 -8.763966560363770 1.556542515754700 0.000000000000000
7.746993541717529 -2.876772165298462 0.682318866252899 0.000000000000000
7.752830982208252 -1.269018769264221 0.663829624652863 0.000000000000000
7.763396263122559 -0.530072033405304 0.537310063838959 0.000000000000000
7.775944232940674 -7.320507526397705 0.881781041622162 0.000000000000000
7.776262283325195 -6.792274951934814 1.373978614807129 0.000000000000000
7.786540985107422 -0.832966029644012 1.042092084884644 0.000000000000000
7.787600994110107 -4.320469379425049 0.683700025081635 0.000000000000000
7.789585113525391 -2.382704734802246 1.392396211624146 0.000000000000000
7.790243625640869 -4.928213596343994 0.835677504539490 0.000000000000000
7.792386531829834 -4.292582988739014 0.700169086456299 0.000000000000000
7.797235488891602 -7.101409435272217 0.891168534755707 0.000000000000000
7.797268390655518 -0.650506675243378 0.495008885860443 0.000000000000000
7.801630020141602 -2.356639385223389 1.393070340156555 0.000000000000000
7.802473068237305 -4.664322376251221 0.912145137786865 0.000000000000000
7.807545661926270 -6.631125926971436 1.254116177558899 0.000000000000000
7.808793544769287 -12.112694740295410 3.861580371856689 0.000000000000000
7.813896656036377 -0.533520162105560 0.661808848381042 0.000000000000000
7.817591190338135 -4.004251956939697 0.657346725463867 0.000000000000000
7.821113586425781 -1.112552046775818 0.667534410953522 0.000000000000000
7.829739093780518 -4.324388027191162 1.860471248626709 0.000000000000000
7.832018375396729 -3.977191686630249 1.827073812484741 0.000000000000000
7.832966804504395 -2.977968454360962 0.449441730976105 0.000000000000000
7.836675643920898 -2.299178123474121 0.819492876529694 0.000000000000000
7.839339256286621 -3.011752367019653 1.117544770240784 0.000000000000000
7.840439796447754 -1.444931745529175 0.976071774959564 0.000000000000000
7.852477550506592 -3.479902982711792 2.301419019699097 0.000000000000000
7.854235649108887 -2.945018529891968 0.730923414230347 0.000000000000000
7.859540939331055 -0.706699967384338 0.514453411102295 0.000000000000000
7.865894317626953 -2.668733358383179 0.833470582962036 0.000000000000000
7.866190433502197 -2.988713979721069 0.597277998924255 0.000000000000000
7.871793746948242 -3.917701244354248 0.692009329795837 0.000000000000000
7.874014377593994 -1.583532810211182 0.805914521217346 0.000000000000000
7.877342700958252 -4.034857273101807 1.840921521186829 0.000000000000000
7.877958297729492 -3.217502117156982 0.719064533710480 0.000000000000000
7.878772735595703 -1.429826855659485 0.676627933979034 0.000000000000000
7.879600524902344 -6.586966991424561 0.728968024253845 0.000000000000000
7.885981559753418 -4.767646789550781 0.778677821159363 0.000000000000000
7.906317234039307 -2.978405237197876 0.436863958835602 1.000000000000000
7.910519599914551 -9.402699470520020 1.635161280632019 0.000000000000000
7.949664592742920 -8.569242477416992 1.327642560005188 0.000000000000000
7.957443714141846 -3.249965429306030 0.593520998954773 0.000000000000000
7.962689399719238 -4.324107170104980 1.342865109443665 0.000000000000000
7.965214729309082 -0.377859115600586 0.304942995309830 0.000000000000000
7.967372894287109 -2.064805746078491 0.393903315067291 0.000000000000000
7.969819545745850 -6.768949031829834 0.863348901271820 0.000000000000000
7.971611499786377 -1.438916206359863 0.668823838233948 0.000000000000000
7.974497318267822 -3.990894079208374 1.186665892601013 0.000000000000000
7.974679946899414 -12.465344429016113 3.965107917785645 0.000000000000000
8.009010314941406 -2.290647983551025 2.232055664062500 0.000000000000000
8.020665168762207 -4.596825599670410 1.050015807151794 0.000000000000000
8.023105621337891 -3.613808631896973 0.999456107616425 0.000000000000000
8.035735130310059 -6.166927814483643 1.501194119453430 0.000000000000000
8.037612915039062 -1.546636343002319 0.423231333494186 0.000000000000000
8.038936614990234 -2.583186864852905 1.251385927200317 0.000000000000000
8.044570922851562 -6.788087368011475 0.848737776279449 0.000000000000000
8.045742034912109 -2.434669494628906 0.710307836532593 0.000000000000000
8.061773300170898 -0.441125780344009 0.541925072669983 0.000000000000000
8.065279006958008 -4.723549365997314 0.789792180061340 0.000000000000000
8.073796272277832 -3.949896097183228 0.707387268543243 0.000000000000000
8.082283973693848 -4.542617321014404 0.675967872142792 0.000000000000000
8.085463523864746 -3.523045063018799 1.307094335556030 0.000000000000000
8.087253570556641 -4.669366359710693 0.572800099849701 0.000000000000000
8.090928077697754 -9.174451828002930 3.277684450149536 0.000000000000000
8.092065811157227 -8.281829833984375 0.821859061717987 0.000000000000000
8.092720031738281 -0.440552532672882 0.559629142284393 0.000000000000000
8.097496032714844 -3.660243272781372 0.774327397346497 0.000000000000000
8.112483024597168 -9.322153091430664 0.972579061985016 0.000000000000000
8.120669364929199 -6.258499622344971 1.028759121894836 0.000000000000000
8.121516227722168 -2.928089618682861 0.729505300521851 0.000000000000000
8.122466087341309 -3.766705036163330 0.953676521778107 0.000000000000000
8.129017829895020 -3.949693202972412 0.787522256374359 0.000000000000000
8.133116722106934 -1.426624774932861 0.879534661769867 0.000000000000000
8.134475708007812 -2.834953069686890 0.611438214778900 0.000000000000000
8.138360977172852 -5.972099304199219 0.959543943405151 0.000000000000000
8.143265724182129 -6.064055919647217 1.504712581634521 0.000000000000000
8.145067214965820 -0.556131958961487 1.086413979530334 0.000000000000000
8.148408889770508 -1.139238715171814 0.267189502716064 0.000000000000000
8.148594856262207 -9.814332962036133 0.635041356086731 0.000000000000000
8.154585838317871 -1.321046948432922 0.618240237236023 0.000000000000000
8.154683113098145 -1.028874635696411 0.377550363540649 0.000000000000000
8.156661987304688 -6.384612560272217 2.154530048370361 0.000000000000000
8.157481193542480 -9.834811210632324 0.685302257537842 0.000000000000000
8.158065795898438 -9.850551605224609 0.218786612153053 0.000000000000000
8.161042213439941 -1.428439855575562 0.668059527873993 0.000000000000000
8.161217689514160 -6.361573696136475 0.077660143375397 0.000000000000000
8.164478302001953 -1.132334232330322 0.696499049663544 0.000000000000000
8.165421485900879 -3.469716548919678 0.595501482486725 0.000000000000000
8.174044609069824 -8.688657760620117 0.961902797222137 0.000000000000000
8.175272941589355 -3.077117443084717 0.603165030479431 0.000000000000000
8.177304267883301 -2.265922784805298 0.963793516159058 0.000000000000000
8.178005218505859 -1.163319945335388 0.570375382900238 0.000000000000000
8.180278778076172 -6.502691745758057 1.279392957687378 0.000000000000000
8.185135841369629 -0.851338446140289 0.663558661937714 0.000000000000000
8.186302185058594 -4.229247093200684 0.689587175846100 0.000000000000000
8.201303482055664 -7.113214969635010 1.444682598114014 0.000000000000000
8.205282211303711 -0.248113870620728 0.424470692873001 0.000000000000000
8.224385261535645 -0.909724056720734 0.300521612167358 0.000000000000000
8.225153923034668 -2.149851560592651 0.423228323459625 0.000000000000000
8.227965354919434 -6.662636756896973 0.833235681056976 0.000000000000000
8.230883598327637 -2.454984188079834 0.626230120658875 0.000000000000000
8.231790542602539 -2.648645162582397 0.597103059291840 0.000000000000000
8.232943534851074 -6.329238891601562 0.697028756141663 0.000000000000000
8.233056068420410 -2.274874210357666 0.721758961677551 0.000000000000000
8.239835739135742 -2.437309503555298 0.975982069969177 0.000000000000000
8.240859985351562 -1.465843558311462 1.113851308822632 0.000000000000000
8.241894721984863 -0.981473445892334 0.253591835498810 0.000000000000000
8.242960929870605 -0.852699518203735 1.102770924568176 0.000000000000000
8.243752479553223 -0.422226548194885 0.299795687198639 0.000000000000000
8.243875503540039 -6.189227104187012 0.751592516899109 0.000000000000000
8.246321678161621 -0.891323149204254 0.652779757976532 0.000000000000000
8.257023811340332 -2.079996824264526 0.538700997829437 0.000000000000000
8.260012626647949 -2.311832189559937 0.724790155887604 0.000000000000000
8.262209892272949 -6.305974483489990 0.217717409133911 0.000000000000000
8.263253211975098 -4.448186874389648 0.817731380462646 0.000000000000000
8.264882087707520 -3.785005331039429 0.627688407897949 1.000000000000000
8.268577575683594 -2.394577503204346 2.306595563888550 0.000000000000000
8.276255607604980 -3.633193969726562 0.906953394412994 0.000000000000000
8.276474952697754 -0.508530855178833 0.444728851318359 0.000000000000000
8.282546043395996 -6.135026931762695 0.513124585151672 0.000000000000000
8.285081863403320 -1.420362710952759 0.954764962196350 0.000000000000000
8.292621612548828 -0.655847251415253 0.302118569612503 0.000000000000000
8.298693656921387 -2.643345117568970 0.567798376083374 0.000000000000000
8.309847831726074 -2.685449361801147 0.687301695346832 0.000000000000000
8.312980651855469 -2.252511978149414 0.864221513271332 0.000000000000000
8.314955711364746 -6.461835861206055 2.190370798110962 0.000000000000000
8.316049575805664 -1.212587475776672 0.580294907093048 0.000000000000000
8.327098846435547 -2.669371366500854 1.295952677726746 0.000000000000000
8.339941024780273 -6.634838104248047 0.756438851356506 0.000000000000000
8.344520568847656 -2.443112134933472 0.926138103008270 0.000000000000000
8.353321075439453 -0.717013359069824 0.578917205333710 0.000000000000000
8.357336044311523 -1.342817664146423 0.682526648044586 0.000000000000000
8.364888191223145 -4.149819850921631 1.242595791816711 0.000000000000000
8.372204780578613 -1.706083416938782 0.688956499099731 0.000000000000000
8.372303962707520 -5.850599288940430 1.359204649925232 0.000000000000000
8.388424873352051 -2.572925329208374 0.724449515342712 0.000000000000000
8.390148162841797 -1.077928543090820 0.649407863616943 0.000000000000000
8.392210960388184 -4.188226222991943 1.950888156890869 0.000000000000000
8.392346382141113 -4.236705780029297 1.251038074493408 0.000000000000000
8.396816253662109 -4.202246665954590 0.648354232311249 0.000000000000000
8.397459030151367 -7.756010055541992 1.521190643310547 0.000000000000000
8.408232688903809 -5.492975234985352 1.336516141891479 0.000000000000000
8.410573005676270 -1.607749700546265 0.707004725933075 0.000000000000000
8.415874481201172 -6.013184547424316 0.714209079742432 0.000000000000000
8.418033599853516 -2.101660728454590 0.786562502384186 0.000000000000000
8.418132781982422 -3.299708127975464 0.787869453430176 0.000000000000000
8.426555633544922 -1.233507394790649 0.686706066131592 0.000000000000000
8.440482139587402 -3.146031618118286 0.604609489440918 0.000000000000000
8.442713737487793 -2.503891468048096 0.938000738620758 0.000000000000000
8.449894905090332 -0.734663486480713 0.667530059814453 0.000000000000000
8.450012207031250 -3.828472614288330 0.808356165885925 0.000000000000000
8.450064659118652 -2.469050884246826 0.999907612800598 0.000000000000000
8.466705322265625 -1.030282020568848 0.968759238719940 0.000000000000000
8.469511985778809 -0.667457520961761 0.586632430553436 0.000000000000000
8.469593048095703 -7.280371189117432 1.367375493049622 0.000000000000000
8.477761268615723 -4.213562011718750 1.075295686721802 0.000000000000000
8.481565475463867 -7.781732082366943 1.531743407249451 0.000000000000000
8.482050895690918 -1.423669934272766 0.976884841918945 0.000000000000000
8.483403205871582 -8.861259460449219 0.894406676292419 0.000000000000000
8.486273765563965 -1.118143200874329 0.591041147708893 0.000000000000000
8.486363410949707 -0.815349996089935 0.424421638250351 0.000000000000000
8.488072395324707 -5.537105560302734 0.918739616870880 0.000000000000000
8.489656448364258 -5.343739032745361 0.808872818946838 0.000000000000000
8.490968704223633 -5.406010627746582 0.877108097076416 0.000000000000000
8.495680809020996 -1.267868995666504 0.559991776943207 0.000000000000000
8.497520446777344 -3.575868368148804 0.618807256221771 0.000000000000000
8.500309944152832 -4.291209220886230 0.804611384868622 0.000000000000000
8.503871917724609 -0.314200907945633 0.719064533710480 0.000000000000000
8.504604339599609 -5.305189609527588 1.333877801895142 0.000000000000000
8.509801864624023 -5.735180854797363 1.165580749511719 0.000000000000000
8.512612342834473 -7.467463970184326 1.935606122016907 0.000000000000000
8.526295661926270 -2.386360168457031 1.178223609924316 0.000000000000000
8.527126312255859 -6.626721382141113 1.026541709899902 0.000000000000000
8.528514862060547 -1.967708349227905 0.519998311996460 0.000000000000000
8.531657218933105 -9.701814651489258 1.581741809844971 0.000000000000000
8.532171249389648 -7.865543842315674 0.958142876625061 0.000000000000000
8.539314270019531 -0.228382378816605 0.310248613357544 0.000000000000000
8.554953575134277 -0.832640349864960 0.915546357631683 0.000000000000000
8.568514823913574 -7.275888442993164 1.495863795280457 0.000000000000000
8.577937126159668 -3.604775905609131 0.660432517528534 0.000000000000000
8.582715034484863 -2.192333459854126 0.560420811176300 0.000000000000000
8.587215423583984 -2.659501314163208 1.536623358726501 0.000000000000000
8.588661193847656 -3.780533313751221 1.604019045829773 0.000000000000000
8.589683532714844 -2.573433876037598 0.723034560680389 0.000000000000000
8.591708183288574 -0.901660442352295 0.396822512149811 0.000000000000000
8.596585273742676 -1.597628593444824 0.993136167526245 0.000000000000000
8.597290992736816 -1.398925423622131 0.719183146953583 0.000000000000000
8.600683212280273 -0.230023667216301 1.053360342979431 0.000000000000000
8.604615211486816 -11.498260498046875 3.848121881484985 0.000000000000000
8.619646072387695 -3.164922952651978 0.687198936939240 0.000000000000000
8.620213508605957 -6.966073513031006 0.743908107280731 0.000000000000000
8.620541572570801 -0.920965731143951 0.565196156501770 0.000000000000000
8.630716323852539 -0.500062227249146 0.730515718460083 0.000000000000000
8.641548156738281 -0.449708402156830 0.681025028228760 0.000000000000000
8.646362304687500 -7.985900878906250 0.994565606117249 0.000000000000000
8.651017189025879 -1.418518662452698 1.073290109634399 0.000000000000000
8.653017044067383 -8.813369750976562 1.643603563308716 0.000000000000000
8.659615516662598 -1.375886678695679 0.369031101465225 0.000000000000000
8.660498619079590 -6.840631008148193 0.783343255519867 0.000000000000000
8.660737037658691 -10.026129722595215 0.634069621562958 1.000000000000000
8.670809745788574 -0.928478896617889 0.585322022438049 0.000000000000000
8.676552772521973 -1.172499179840088 0.469578802585602 0.000000000000000
8.679761886596680 -1.218933939933777 0.352036088705063 0.000000000000000
8.688549995422363 -3.224685192108154 0.550600409507751 0.000000000000000
8.691132545471191 -2.696340084075928 1.210937380790710 0.000000000000000
8.691490173339844 -5.304893016815186 1.156552195549011 0.000000000000000
8.694385528564453 -3.899753570556641 0.863846421241760 0.000000000000000
8.697171211242676 -1.317186713218689 0.836147010326385 0.000000000000000
8.703151702880859 -5.872338771820068 0.664221107959747 0.000000000000000
8.707430839538574 -7.106922149658203 1.127801060676575 0.000000000000000
8.710995674133301 -10.067604064941406 0.278869271278381 0.000000000000000
8.718581199645996 -6.945513725280762 0.748194217681885 0.000000000000000
8.725375175476074 -6.380865573883057 0.371813178062439 0.000000000000000
8.726603507995605 -10.229101181030273 0.902494192123413 0.000000000000000
8.727766990661621 -1.203936576843262 0.489493578672409 0.000000000000000
8.736798286437988 -6.112574100494385 0.530825376510620 0.000000000000000
8.736831665039062 -5.312494277954102 0.844258427619934 0.000000000000000
8.737164497375488 -0.719246804714203 1.166615486145020 0.000000000000000
8.740643501281738 -3.435631752014160 1.066718578338623 0.000000000000000
8.744332313537598 -1.184144854545593 0.592286944389343 0.000000000000000
8.755754470825195 -0.874866306781769 0.471935242414474 0.000000000000000
8.756395339965820 -1.359943747520447 0.509391725063324 0.000000000000000
8.759057044982910 -10.391403198242188 1.663891196250916 0.000000000000000
8.763176918029785 -1.318892359733582 0.943932175636292 0.000000000000000
8.764422416687012 -7.283084392547607 1.516441822052002 0.000000000000000
8.767246246337891 -1.184754967689514 0.610880255699158 0.000000000000000
8.767409324645996 -1.377329587936401 1.008033156394958 0.000000000000000
8.772885322570801 -3.307650327682495 1.064912915229797 0.000000000000000
8.773029327392578 -1.351709246635437 0.698599815368652 0.000000000000000
8.790005683898926 -0.795158207416534 0.422394365072250 0.000000000000000
8.790227890014648 -0.847331702709198 0.609778046607971 0.000000000000000
8.796606063842773 -3.431599140167236 0.579167187213898 0.000000000000000
8.803136825561523 -6.861941814422607 1.485310912132263 0.000000000000000
8.810102462768555 -0.765981078147888 0.287183284759521 0.000000000000000
8.811131477355957 -0.489379256963730 0.694519937038422 0.000000000000000
8.811919212341309 -8.253551483154297 1.606668472290039 0.000000000000000
8.812642097473145 -7.061266899108887 1.673596858978271 0.000000000000000
8.814532279968262 -10.121392250061035 0.255363970994949 0.000000000000000
8.814758300781250 -8.145996093750000 1.469454646110535 0.000000000000000
8.814929008483887 -1.384794712066650 0.719498157501221 0.000000000000000
8.819812774658203 -8.203337669372559 1.017804741859436 0.000000000000000
8.821494102478027 -11.126363754272461 3.804640054702759 0.000000000000000
8.822604179382324 -7.849059104919434 2.018502950668335 0.000000000000000
8.824649810791016 -7.159842491149902 1.684152126312256 0.000000000000000
8.825636863708496 -4.845117092132568 0.850752711296082 0.000000000000000
8.831896781921387 -3.480935573577881 2.543673515319824 0.000000000000000
8.837557792663574 -3.571322441101074 0.830579042434692 0.000000000000000
8.840045928955078 -0.730201244354248 0.322153359651566 0.000000000000000
8.847126007080078 -9.990014076232910 1.633753538131714 0.000000000000000
8.850679397583008 -0.357955574989319 1.178751349449158 0.000000000000000
8.868962287902832 -6.963157176971436 0.952802658081055 0.000000000000000
8.870485305786133 -9.897433280944824 1.097371459007263 0.000000000000000
8.874448776245117 -3.373923063278198 0.802253782749176 0.000000000000000
8.895330429077148 -1.528337478637695 0.431955128908157 0.000000000000000
8.906707763671875 -2.008520126342773 0.736215770244598 0.000000000000000
8.910041809082031 -1.495505928993225 0.728499889373779 0.000000000000000
8.910982131958008 -2.337419986724854 0.600585997104645 0.000000000000000
8.914469718933105 -0.837799489498138 0.428513258695602 0.000000000000000
8.914569854736328 -0.577416777610779 1.188776373863220 0.000000000000000
8.920709609985352 -1.300754785537720 0.483503371477127 0.000000000000000
8.922939300537109 -6.997484683990479 0.804866850376129 0.000000000000000
8.930788040161133 -1.400440454483032 0.467434108257294 0.000000000000000
8.933093070983887 -3.906857967376709 0.654435515403748 0.000000000000000
8.936234474182129 -7.345792293548584 3.099617004394531 0.000000000000000
8.936806678771973 -2.462949514389038 0.840372323989868 0.000000000000000
8.940525054931641 -2.033206462860107 0.757034897804260 0.000000000000000
8.949227333068848 -0.935706317424774 0.569260239601135 0.000000000000000
8.954247474670410 -8.023472785949707 0.992703080177307 0.000000000000000
8.957624435424805 -3.826664924621582 0.728992164134979 0.000000000000000
8.959143638610840 -3.410776376724243 0.643452346324921 0.000000000000000
8.960185050964355 -7.203917026519775 0.727360010147095 0.000000000000000
8.962700843811035 -3.018720388412476 0.525440037250519 0.000000000000000
8.964682579040527 -7.912890434265137 1.772112607955933 0.000000000000000
8.964703559875488 -9.077437400817871 1.449075937271118 0.000000000000000
8.968420028686523 -1.406341671943665 0.329702675342560 0.000000000000000
8.973709106445312 -6.591363430023193 1.009385704994202 0.000000000000000
8.975153923034668 -0.949978947639465 0.745185673236847 0.000000000000000
8.986225128173828 -7.574077129364014 1.563929677009583 0.000000000000000
8.988654136657715 -2.939508199691772 0.598304152488708 0.000000000000000
9.004339218139648 -3.102903604507446 1.411474227905273 0.000000000000000
9.005208015441895 -9.055009841918945 1.029737472534180 0.000000000000000
9.010045051574707 -1.408680081367493 0.770594716072083 0.000000000000000
9.015093803405762 -8.369721412658691 1.071905255317688 0.000000000000000
9.016928672790527 -3.387085199356079 0.553696691989899 0.000000000000000
9.018509864807129 -0.805832684040070 0.625208497047424 0.000000000000000
9.022213935852051 -1.229312777519226 0.435779422521591 0.000000000000000
9.023501396179199 -11.282526969909668 1.640931844711304 0.000000000000000
9.027770996093750 -3.499466419219971 0.705926835536957 0.000000000000000
9.036746978759766 -3.698503494262695 0.787332892417908 0.000000000000000
9.049057960510254 -4.847182273864746 1.366064071655273 0.000000000000000
9.057432174682617 -11.506221771240234 3.923696994781494 0.000000000000000
9.057770729064941 -0.992307245731354 1.115579962730408 0.000000000000000
9.062382698059082 -3.198837280273438 0.645059704780579 0.000000000000000
9.063289642333984 -9.401060104370117 1.183816194534302 0.000000000000000
9.063371658325195 -3.594299077987671 0.654435515403748 0.000000000000000
9.064749717712402 -3.663132429122925 0.543191432952881 0.000000000000000
9.080994606018066 -4.614626884460449 0.923434436321259 0.000000000000000
9.082429885864258 -0.971593856811523 0.630719363689423 0.000000000000000
9.084589958190918 -0.965410590171814 0.068564273416996 0.000000000000000
9.091225624084473 -1.551705360412598 1.227294325828552 0.000000000000000
9.091520309448242 -1.106313467025757 0.315023660659790 0.000000000000000
9.092200279235840 -0.758539617061615 0.718057692050934 0.000000000000000
9.095032691955566 -4.585070133209229 0.887525081634521 0.000000000000000
9.099050521850586 -0.719626069068909 0.612645924091339 0.000000000000000
9.106284141540527 -6.488737583160400 1.062879443168640 0.000000000000000
9.117556571960449 -3.556803464889526 2.622354745864868 0.000000000000000
9.129661560058594 -4.639357566833496 0.746647834777832 0.000000000000000
9.130393981933594 -1.634428262710571 0.987993538379669 0.000000000000000
9.149311065673828 -2.029693841934204 1.064461350440979 0.000000000000000
9.161550521850586 -0.981027960777283 0.334638774394989 0.000000000000000
9.169321060180664 -3.480901002883911 0.563797235488892 0.000000000000000
9.169832229614258 -1.314695596694946 0.986722528934479 0.000000000000000
9.174778938293457 -1.013877630233765 1.228349566459656 0.000000000000000
9.176022529602051 -3.238950014114380 0.803444445133209 0.000000000000000
9.178626060485840 -3.155796051025391 1.438448786735535 0.000000000000000
9.187042236328125 -1.082643389701843 0.567412436008453 0.000000000000000
9.189436912536621 -3.206575870513916 0.672050952911377 0.000000000000000
9.202744483947754 -4.686201095581055 0.872644603252411 0.000000000000000
9.204537391662598 -0.929931521415710 0.728100478649139 0.000000000000000
9.229742050170898 -4.732859134674072 0.756246328353882 0.000000000000000
9.232852935791016 -2.378496646881104 0.511352419853210 0.000000000000000
9.236257553100586 -6.697243213653564 0.787779271602631 0.000000000000000
9.238778114318848 -7.289019584655762 0.971637785434723 0.000000000000000
9.248495101928711 -0.568254649639130 0.639812290668488 0.000000000000000
9.261952400207520 -2.873431444168091 0.819430470466614 0.000000000000000
9.264253616333008 -0.926655113697052 1.139884591102600 0.000000000000000
9.270562171936035 -1.375901937484741 0.773821294307709 0.000000000000000
9.270779609680176 -6.759873867034912 1.961216449737549 0.000000000000000
9.271681785583496 -2.038850784301758 0.902387678623199 0.000000000000000
9.281985282897949 -8.700524330139160 1.445013165473938 0.000000000000000
9.284871101379395 -0.915625333786011 0.698244333267212 0.000000000000000
9.285350799560547 -2.983702898025513 0.541860103607178 0.000000000000000
9.286489486694336 -1.985088109970093 1.263701558113098 0.000000000000000
9.293425559997559 -9.334390640258789 1.752825260162354 0.000000000000000
9.297080993652344 -4.714841842651367 2.793175220489502 0.000000000000000
9.300121307373047 -2.605741500854492 0.648274242877960 0.000000000000000
9.307308197021484 -2.289194583892822 0.868902325630188 0.000000000000000
9.316000938415527 -7.261713981628418 0.815609157085419 0.000000000000000
9.317502975463867 -2.437797546386719 0.498004287481308 0.000000000000000
9.318661689758301 -1.369246959686279 1.003245592117310 0.000000000000000
9.322958946228027 -2.035801887512207 1.083872675895691 0.000000000000000
9.326047897338867 -8.038105010986328 0.992765963077545 0.000000000000000
9.328048706054688 -3.479822397232056 1.130820989608765 0.000000000000000
9.328102111816406 -4.671572685241699 0.861374020576477 0.000000000000000
9.328618049621582 -5.200349330902100 0.968215823173523 0.000000000000000
9.329177856445312 -4.813291549682617 2.812845706939697 0.000000000000000
9.336878776550293 -2.963267564773560 0.563108563423157 0.000000000000000
9.344036102294922 -7.820033550262451 1.029592633247375 0.000000000000000
9.349984169006348 -5.523400306701660 0.728906691074371 0.000000000000000
9.350867271423340 -2.758495092391968 0.823808848857880 0.000000000000000
9.352677345275879 -1.374245166778564 0.598051548004150 0.000000000000000
9.362561225891113 -2.141217231750488 1.175855398178101 0.000000000000000
9.368539810180664 -7.394049167633057 1.461191058158875 0.000000000000000
9.378851890563965 -0.241007402539253 1.148634314537048 0.000000000000000
9.381404876708984 -4.669017314910889 0.662958383560181 0.000000000000000
9.385095596313477 -5.900050163269043 0.765460252761841 0.000000000000000
9.386684417724609 -1.479820132255554 0.747872173786163 0.000000000000000
9.394324302673340 -1.205440402030945 0.489742070436478 0.000000000000000
9.399101257324219 -11.072065353393555 1.778122782707214 0.000000000000000
9.401785850524902 -8.218475341796875 1.006911635398865 0.000000000000000
9.404844284057617 -4.464944362640381 0.879717409610748 0.000000000000000
9.405379295349121 -1.731640458106995 0.789620280265808 0.000000000000000
9.405402183532715 -2.003984451293945 1.643782496452332 0.000000000000000
9.410007476806641 -0.744219064712524 0.488089650869370 0.000000000000000
9.410366058349609 -5.075013637542725 0.779515445232391 0.000000000000000
9.412397384643555 -7.204394340515137 0.909967064857483 0.000000000000000
9.412747383117676 -4.725682735443115 1.121872663497925 0.000000000000000
9.415007591247559 -9.038766860961914 0.976765871047974 0.000000000000000
9.415014266967773 -7.198060989379883 0.932721793651581 0.000000000000000
9.419159889221191 -5.593132495880127 1.041303992271423 0.000000000000000
9.420400619506836 -3.206599473953247 0.902127206325531 0.000000000000000
9.430212974548340 -4.258102893829346 2.772469758987427 0.000000000000000
9.431128501892090 -4.847358226776123 0.875527262687683 0.000000000000000
9.441505432128906 -0.777228474617004 0.654140591621399 0.000000000000000
9.442711830139160 -9.098357200622559 0.905436456203461 0.000000000000000
9.443169593811035 -4.889856338500977 0.898578107357025 0.000000000000000
9.443218231201172 -0.744192481040955 1.260535717010498 0.000000000000000
9.444266319274902 -1.010301351547241 0.802590548992157 0.000000000000000
9.450119018554688 -3.119473934173584 0.495423793792725 0.000000000000000
9.455832481384277 -1.540318608283997 1.172938823699951 0.000000000000000
9.457043647766113 -5.056380271911621 1.312933206558228 0.000000000000000
9.466675758361816 -9.088370323181152 2.729614257812500 0.000000000000000
