# This PCD file was generated using the MATLAB® pcwrite function
# from Computer Vision Toolbox®.
# .PCD v.7 - Point Cloud Data file format
VERSION .7
FIELDS x y z intensity
SIZE 8 8 8 8
TYPE F F F F
COUNT 1 1 1 1
WIDTH 641
HEIGHT 1
VIEWPOINT 0 0 0 1 0 0 0
POINTS 641
DATA ascii
-6.983808517456055 -9.852280616760254 0.927113175392151 0.000000000000000
-6.980580329895020 -5.739630222320557 0.746173083782196 0.000000000000000
-6.978599071502686 0.208460688591003 1.870744109153748 0.000000000000000
-6.969239711761475 -8.536611557006836 1.883711338043213 0.000000000000000
-6.969170570373535 -6.462341308593750 0.953678786754608 0.000000000000000
-6.966862678527832 -11.844395637512207 0.975355863571167 0.000000000000000
-6.965212345123291 -13.040304183959961 0.054186068475246 0.000000000000000
-6.963971138000488 -10.781984329223633 0.342832684516907 0.000000000000000
-6.962209224700928 -4.123346328735352 1.199195981025696 0.000000000000000
-6.955152034759521 1.009810686111450 1.883167505264282 0.000000000000000
-6.939550399780273 -11.892765998840332 0.977338254451752 0.000000000000000
-6.938967227935791 -10.817688941955566 0.047104936093092 0.000000000000000
-6.934631824493408 -13.092814445495605 0.054303359240294 0.000000000000000
-6.928677082061768 -8.806674957275391 0.976416409015656 0.000000000000000
-6.926727294921875 -13.282337188720703 0.774581551551819 0.000000000000000
-6.923999786376953 -7.215740203857422 0.267110466957092 0.000000000000000
-6.921949386596680 -9.751299858093262 0.572307050228119 0.000000000000000
-6.918092250823975 -9.546091079711914 0.905068218708038 0.000000000000000
-6.913484573364258 -13.130359649658203 0.510418057441711 0.000000000000000
-6.913400650024414 -11.300230026245117 0.353833258152008 0.000000000000000
-6.913014411926270 5.453892230987549 2.359394550323486 0.000000000000000
-6.906317234039307 -10.450943946838379 0.913312852382660 0.000000000000000
-6.904978275299072 6.118898868560791 0.637056887149811 1.000000000000000
-6.900305271148682 -11.101345062255859 0.927777528762817 0.000000000000000
-6.898636341094971 -10.250402450561523 0.948545753955841 0.000000000000000
-6.896944046020508 -11.459409713745117 0.177420780062675 0.000000000000000
-6.888633728027344 -11.934351921081543 0.341583222150803 0.000000000000000
-6.886788368225098 -11.805181503295898 0.155055224895477 0.000000000000000
-6.886516571044922 -10.420980453491211 2.135097503662109 0.000000000000000
-6.885166168212891 -11.945675849914551 0.474254280328751 0.000000000000000
-6.881734848022461 -13.252430915832520 1.419443726539612 0.000000000000000
-6.880759239196777 -12.659081459045410 0.329484581947327 0.000000000000000
-6.880549907684326 -12.980848312377930 1.241438865661621 0.000000000000000
-6.879680633544922 -13.177536010742188 0.282833129167557 0.000000000000000
-6.872866630554199 -9.458302497863770 1.018778800964355 0.000000000000000
-6.872351169586182 -13.217435836791992 1.230017066001892 0.000000000000000
-6.870071411132812 -10.132571220397949 0.798092365264893 0.000000000000000
-6.869811058044434 6.162199020385742 0.761972010135651 0.000000000000000
-6.869474411010742 -4.916974067687988 0.453083544969559 0.000000000000000
-6.859019279479980 -12.241648674011230 1.158592462539673 0.000000000000000
-6.858201503753662 -11.129558563232422 0.776676356792450 0.000000000000000
-6.846405029296875 -6.239368438720703 0.782719433307648 0.000000000000000
-6.846230506896973 5.860058784484863 0.604877352714539 1.000000000000000
-6.839084148406982 -12.271276473999023 0.942944347858429 0.000000000000000
-6.837759017944336 -11.022161483764648 1.130240201950073 0.000000000000000
-6.836798191070557 -10.640419006347656 0.848917782306671 0.000000000000000
-6.834760665893555 -10.377670288085938 0.212560966610909 0.000000000000000
-6.821298599243164 -10.761514663696289 0.413767218589783 0.000000000000000
-6.812061786651611 -5.508037567138672 0.588000833988190 0.000000000000000
-6.810656070709229 -5.676038742065430 1.085442304611206 0.000000000000000
-6.807462692260742 -6.302013397216797 0.533265948295593 0.000000000000000
-6.804600715637207 -7.506536483764648 0.758247375488281 0.000000000000000
-6.800090312957764 -9.369146347045898 0.509502589702606 0.000000000000000
-6.799383640289307 -13.149905204772949 0.082680709660053 0.000000000000000
-6.799314975738525 -9.474802970886230 0.647924423217773 0.000000000000000
-6.797909736633301 -8.952023506164551 0.841236591339111 0.000000000000000
-6.794617176055908 -9.643059730529785 0.746301710605621 0.000000000000000
-6.792094230651855 -13.019183158874512 0.900709092617035 0.000000000000000
-6.787533283233643 -4.473512172698975 0.420339584350586 0.000000000000000
-6.785007953643799 -9.901097297668457 0.713099896907806 0.000000000000000
-6.784312248229980 -4.997807025909424 0.306038409471512 0.000000000000000
-6.784123897552490 -6.023652553558350 1.550776362419128 0.000000000000000
-6.781633853912354 -11.260698318481445 0.958396792411804 0.000000000000000
-6.780105113983154 -5.121988773345947 0.852639973163605 0.000000000000000
-6.777781009674072 -10.926760673522949 0.987124502658844 0.000000000000000
-6.772631168365479 -12.564481735229492 0.545840322971344 0.000000000000000
-6.771890163421631 -4.521585941314697 0.389696568250656 0.000000000000000
-6.771393299102783 -7.469902992248535 0.598994433879852 0.000000000000000
-6.768864631652832 -11.148603439331055 1.136490464210510 0.000000000000000
-6.763361930847168 -7.197715282440186 1.688263654708862 0.000000000000000
-6.759965419769287 -10.546727180480957 0.142122626304626 0.000000000000000
-6.744966983795166 -9.279564857482910 0.858550965785980 0.000000000000000
-6.742819786071777 -10.184201240539551 0.796270847320557 0.000000000000000
-6.742693424224854 -11.743921279907227 1.118107557296753 0.000000000000000
-6.741811275482178 6.201365470886230 0.975707292556763 1.000000000000000
-6.740366458892822 -11.615592002868652 1.787121891975403 0.000000000000000
-6.740114688873291 -10.233963012695312 0.964419305324554 0.000000000000000
-6.737936019897461 -11.251138687133789 0.501512765884399 0.000000000000000
-6.735795974731445 -6.138566970825195 0.348506301641464 0.000000000000000
-6.735246181488037 -12.994164466857910 0.025544626638293 0.000000000000000
-6.734447479248047 -10.890392303466797 1.057215690612793 0.000000000000000
-6.732478618621826 -13.171150207519531 0.594111084938049 0.000000000000000
-6.731428623199463 -11.694031715393066 1.795564174652100 0.000000000000000
-6.728034019470215 -9.591515541076660 1.062112212181091 0.000000000000000
-6.721640110015869 -11.632372856140137 0.824058234691620 0.000000000000000
-6.721320629119873 -12.298134803771973 0.374339133501053 0.000000000000000
-6.718772888183594 -9.377074241638184 0.685344517230988 0.000000000000000
-6.715503692626953 2.654923439025879 1.934931278228760 0.000000000000000
-6.713585853576660 -13.152312278747559 1.105130553245544 0.000000000000000
-6.706074237823486 -9.011979103088379 1.664800763130188 0.000000000000000
-6.705795288085938 -10.247138023376465 0.374157905578613 0.000000000000000
-6.696672439575195 -5.191479682922363 1.127570033073425 0.000000000000000
-6.692098140716553 -5.665079116821289 0.879796683788300 0.000000000000000
-6.687432765960693 -13.101077079772949 3.059514045715332 0.000000000000000
-6.686169624328613 -5.087782382965088 0.843055248260498 0.000000000000000
-6.683111667633057 6.026162147521973 0.902959764003754 1.000000000000000
-6.682928085327148 6.025996685028076 2.411158323287964 0.000000000000000
-6.681286334991455 -9.262470245361328 0.995167016983032 0.000000000000000
-6.676655769348145 -10.706495285034180 0.240069538354874 0.000000000000000
-6.675937652587891 -13.216680526733398 0.708643496036530 0.000000000000000
-6.673969745635986 -5.680395603179932 0.794507503509521 0.000000000000000
-6.673143386840820 -13.247329711914062 0.567239820957184 0.000000000000000
-6.671133518218994 6.044345855712891 1.022478818893433 1.000000000000000
-6.669827461242676 -11.979377746582031 0.682575047016144 0.000000000000000
-6.663482666015625 -4.666516780853271 0.687405526638031 0.000000000000000
-6.662569999694824 -7.240924358367920 0.565633773803711 0.000000000000000
-6.661478996276855 -11.209403991699219 0.473575562238693 0.000000000000000
-6.661087989807129 -10.725670814514160 2.626164197921753 0.000000000000000
-6.660643100738525 5.882689952850342 2.381135463714600 0.000000000000000
-6.656448364257812 7.020811080932617 1.287445425987244 0.000000000000000
-6.656165122985840 -7.291472911834717 2.053523540496826 0.000000000000000
-6.656010627746582 -13.279584884643555 0.225570261478424 0.000000000000000
-6.654887676239014 -9.589763641357422 0.738472461700439 0.000000000000000
-6.651968002319336 6.168635845184326 2.430828571319580 0.000000000000000
-6.649356842041016 -9.952219009399414 0.965117692947388 0.000000000000000
-6.649218082427979 -10.083683967590332 0.183420076966286 0.000000000000000
-6.648072242736816 -8.818444252014160 2.297079086303711 0.000000000000000
-6.644041538238525 -3.458374738693237 0.711992979049683 0.000000000000000
-6.641816139221191 -13.300491333007812 0.797341346740723 0.000000000000000
-6.637506008148193 -9.263654708862305 0.852878987789154 0.000000000000000
-6.633356094360352 -6.005064010620117 0.067153356969357 0.000000000000000
-6.631494045257568 -5.439034461975098 0.575678229331970 0.000000000000000
-6.627353191375732 -10.710522651672363 1.015591859817505 0.000000000000000
-6.623718738555908 -5.745339393615723 0.588536560535431 0.000000000000000
-6.622247695922852 -11.616634368896484 0.100354798138142 0.000000000000000
-6.617287635803223 -5.353605747222900 0.587734580039978 0.000000000000000
-6.616703033447266 -10.725077629089355 1.542854547500610 0.000000000000000
-6.615519046783447 -9.935320854187012 0.870265007019043 0.000000000000000
-6.610154151916504 -13.072269439697266 1.276424884796143 0.000000000000000
-6.608247756958008 -10.408516883850098 3.303566455841064 0.000000000000000
-6.607260704040527 -11.434430122375488 3.538574218750000 0.000000000000000
-6.607000827789307 -9.144677162170410 1.022747874259949 0.000000000000000
-6.604056358337402 -11.536467552185059 0.431683719158173 0.000000000000000
-6.602971553802490 -10.381378173828125 0.897024512290955 0.000000000000000
-6.598944664001465 -3.634403228759766 1.002519011497498 0.000000000000000
-6.592103958129883 -10.532382011413574 0.929897844791412 0.000000000000000
-6.590936660766602 -9.782880783081055 0.020587893202901 0.000000000000000
-6.589841365814209 -12.960124969482422 0.975893795490265 0.000000000000000
-6.585503101348877 -11.440526008605957 0.301867514848709 0.000000000000000
-6.585215091705322 -4.313513278961182 0.558762192726135 0.000000000000000
-6.582674026489258 -12.985268592834473 1.202039718627930 0.000000000000000
-6.581251621246338 -13.412665367126465 1.988153338432312 0.000000000000000
-6.579097747802734 -10.676626205444336 0.938554942607880 0.000000000000000
-6.575412750244141 -9.663814544677734 0.514427006244659 0.000000000000000
-6.574335575103760 -5.550633430480957 1.144982218742371 0.000000000000000
-6.572519302368164 -10.681805610656738 0.503734290599823 0.000000000000000
-6.571252346038818 -9.910034179687500 0.775193095207214 0.000000000000000
-6.570489406585693 -4.480235576629639 0.610522985458374 0.000000000000000
-6.563496589660645 -10.561946868896484 0.141078934073448 0.000000000000000
-6.555699825286865 -11.867797851562500 0.518479526042938 0.000000000000000
-6.555126190185547 -10.473300933837891 2.569959163665771 0.000000000000000
-6.553482532501221 2.643919944763184 1.893520236015320 0.000000000000000
-6.551754951477051 -12.859102249145508 0.025188580155373 0.000000000000000
-6.547683238983154 -5.565425872802734 0.726137340068817 0.000000000000000
-6.544467926025391 8.257358551025391 2.823198318481445 0.000000000000000
-6.544148445129395 -8.680593490600586 1.033354997634888 0.000000000000000
-6.543025970458984 -10.098125457763672 0.923745214939117 0.000000000000000
-6.539301872253418 -11.637664794921875 0.279623180627823 0.000000000000000
-6.537056446075439 -10.334209442138672 1.627246499061584 0.000000000000000
-6.536988258361816 5.194353580474854 2.237231731414795 0.000000000000000
-6.536753654479980 -9.752702713012695 2.442072153091431 0.000000000000000
-6.536328315734863 -11.292103767395020 0.122972682118416 0.000000000000000
-6.528869628906250 -10.275165557861328 0.911090850830078 0.000000000000000
-6.524320125579834 -8.067800521850586 0.297070324420929 0.000000000000000
-6.524066448211670 -10.754715919494629 0.360147714614868 0.000000000000000
-6.520305156707764 7.303330421447754 2.036417484283447 1.000000000000000
-6.515669345855713 -10.008758544921875 1.040654420852661 0.000000000000000
-6.515443325042725 -5.132308959960938 1.015445113182068 0.000000000000000
-6.511710643768311 -13.281490325927734 0.054215393960476 0.000000000000000
-6.506579875946045 -9.066879272460938 0.792122602462769 0.000000000000000
-6.501933574676514 -10.146492958068848 0.995007157325745 0.000000000000000
-6.498942852020264 -6.634649276733398 0.677131295204163 0.000000000000000
-6.497991085052490 -11.080432891845703 0.417142808437347 0.000000000000000
-6.497740268707275 -10.514170646667480 1.044411778450012 0.000000000000000
-6.493326187133789 -11.189870834350586 0.693871200084686 0.000000000000000
-6.493168354034424 -7.513391971588135 0.865302205085754 0.000000000000000
-6.493040561676025 -9.356539726257324 0.896316826343536 0.000000000000000
-6.491186618804932 -9.606208801269531 0.487948596477509 0.000000000000000
-6.486031532287598 -11.318834304809570 0.523960709571838 0.000000000000000
-6.482749938964844 -11.292996406555176 0.949380040168762 0.000000000000000
-6.482511520385742 -4.290519714355469 2.082975864410400 0.000000000000000
-6.477956771850586 -5.316132068634033 0.578641653060913 0.000000000000000
-6.476452827453613 -13.093752861022949 0.053540997207165 0.000000000000000
-6.471014976501465 -10.791750907897949 1.014627456665039 0.000000000000000
-6.470748424530029 -10.971137046813965 0.266806453466415 0.000000000000000
-6.462441444396973 -12.051390647888184 0.601835668087006 0.000000000000000
-6.460505962371826 -11.311785697937012 0.874366581439972 0.000000000000000
-6.459589958190918 -9.246533393859863 0.909499704837799 0.000000000000000
-6.456934452056885 -12.603849411010742 1.196644663810730 0.000000000000000
-6.455008029937744 -1.634087204933167 0.267438292503357 0.000000000000000
-6.454930782318115 -10.648288726806641 1.845413088798523 0.000000000000000
-6.443377017974854 -9.254251480102539 1.927518606185913 0.000000000000000
-6.439375400543213 -11.186668395996094 0.096872553229332 0.000000000000000
-6.437234878540039 -3.578802347183228 1.258952736854553 1.000000000000000
-6.437013626098633 -4.219007968902588 0.697722077369690 0.000000000000000
-6.433515548706055 -2.111252307891846 1.408386468887329 0.000000000000000
-6.431726932525635 -10.130482673645020 1.204079389572144 0.000000000000000
-6.428124427795410 -5.511124610900879 0.699105262756348 0.000000000000000
-6.427825450897217 -13.125457763671875 1.789302945137024 0.000000000000000
-6.427631855010986 -9.364864349365234 0.631060600280762 0.000000000000000
-6.426040172576904 -13.060012817382812 0.696596980094910 0.000000000000000
-6.423719406127930 -12.326189994812012 0.104317359626293 0.000000000000000
-6.422516345977783 -9.302324295043945 0.671585440635681 0.000000000000000
-6.420840263366699 -10.229350090026855 1.607196211814880 0.000000000000000
-6.419787406921387 -5.388369083404541 1.026139140129089 0.000000000000000
-6.417940616607666 0.213015601038933 1.720629096031189 0.000000000000000
-6.415447235107422 -5.656375408172607 0.775367140769958 0.000000000000000
-6.415339946746826 -6.009253025054932 0.319249749183655 0.000000000000000
-6.413115024566650 -11.850428581237793 0.204616636037827 0.000000000000000
-6.411819458007812 -2.131561994552612 0.206440359354019 1.000000000000000
-6.410660743713379 -4.732912540435791 0.975585758686066 0.000000000000000
-6.400095939636230 -11.677433013916016 0.919489145278931 0.000000000000000
-6.394153118133545 -6.108679294586182 1.004421830177307 0.000000000000000
-6.393351078033447 -0.651442050933838 1.336704492568970 0.000000000000000
-6.390915393829346 -13.024758338928223 0.331770777702332 0.000000000000000
-6.389646053314209 -11.438083648681641 0.828887343406677 0.000000000000000
-6.389540195465088 -4.203692436218262 0.601938247680664 0.000000000000000
-6.380037307739258 -4.236961364746094 0.514065384864807 0.000000000000000
-6.375693321228027 -5.771806240081787 1.144454598426819 0.000000000000000
-6.375433444976807 -4.628286838531494 0.528798878192902 0.000000000000000
-6.374256610870361 -12.619427680969238 0.241841971874237 0.000000000000000
-6.371904850006104 -10.384984016418457 0.442507147789001 0.000000000000000
-6.369531154632568 -11.530776023864746 0.706510424613953 0.000000000000000
-6.369091033935547 -9.982852935791016 0.954829990863800 0.000000000000000
-6.368895530700684 -4.183424949645996 0.350018709897995 0.000000000000000
-6.367562294006348 -10.414566040039062 0.161928296089172 0.000000000000000
-6.364579200744629 -10.798016548156738 0.865482568740845 0.000000000000000
-6.353024005889893 -13.170007705688477 1.207306027412415 0.000000000000000
-6.338294506072998 -11.287321090698242 0.893863618373871 0.000000000000000
-6.337208747863770 -13.131950378417969 1.119394183158875 0.000000000000000
-6.334407329559326 -5.429627418518066 1.426094293594360 0.000000000000000
-6.333049774169922 -11.444903373718262 0.449915915727615 0.000000000000000
-6.332368850708008 -9.530624389648438 1.148168683052063 0.000000000000000
-6.331285476684570 -10.244825363159180 0.831590712070465 0.000000000000000
-6.329976558685303 -10.708099365234375 0.786963164806366 0.000000000000000
-6.328062534332275 -11.621930122375488 1.067030549049377 0.000000000000000
-6.325048923492432 -10.699763298034668 0.403640538454056 0.000000000000000
-6.323393821716309 -10.435408592224121 1.063224434852600 0.000000000000000
-6.320824146270752 -10.295274734497070 0.974119544029236 0.000000000000000
-6.316760063171387 -10.605301856994629 0.021544333547354 0.000000000000000
-6.311978816986084 -13.084920883178711 0.081139244139194 0.000000000000000
-6.305134773254395 -4.191660404205322 0.659740865230560 0.000000000000000
-6.302145004272461 -4.097666263580322 0.681470811367035 0.000000000000000
-6.300538539886475 -11.398355484008789 0.072739362716675 0.000000000000000
-6.298420429229736 -10.541423797607422 0.705894351005554 0.000000000000000
-6.292990207672119 4.790676116943359 2.119210481643677 0.000000000000000
-6.292823314666748 -11.158398628234863 0.194534599781036 0.000000000000000
-6.286252498626709 -4.011111736297607 0.586874127388000 0.000000000000000
-6.284650802612305 -10.169364929199219 1.590839266777039 0.000000000000000
-6.283625125885010 -10.153831481933594 0.916703045368195 0.000000000000000
-6.279389381408691 -11.829236030578613 1.028152585029602 0.000000000000000
-6.279273986816406 -3.770283937454224 0.590580046176910 0.000000000000000
-6.279116153717041 -11.240224838256836 1.371413111686707 0.000000000000000
-6.278926372528076 -13.001320838928223 0.718772172927856 0.000000000000000
-6.276865959167480 -11.130103111267090 0.390404373407364 0.000000000000000
-6.272685527801514 4.740725040435791 2.106787204742432 0.000000000000000
-6.272260665893555 -13.352816581726074 1.132560014724731 0.000000000000000
-6.270239830017090 -10.042672157287598 0.931780278682709 0.000000000000000
-6.268019199371338 -12.639024734497070 0.051708407700062 0.000000000000000
-6.265966415405273 -9.036397933959961 0.886673808097839 0.000000000000000
-6.264663696289062 -5.679253101348877 0.063460975885391 0.000000000000000
-6.261875629425049 -13.216045379638672 0.756198167800903 0.000000000000000
-6.261549472808838 -10.119343757629395 0.043615683913231 0.000000000000000
-6.260924816131592 -9.293045997619629 0.881880342960358 0.000000000000000
-6.259322643280029 -12.468038558959961 0.372630298137665 0.000000000000000
-6.259216308593750 -5.835182666778564 0.623903274536133 0.000000000000000
-6.257412433624268 -8.292416572570801 0.757409751415253 0.000000000000000
-6.252182960510254 11.833772659301758 3.586196899414062 0.000000000000000
-6.249584674835205 -10.259392738342285 0.968654155731201 0.000000000000000
-6.249464988708496 -10.704969406127930 0.093030072748661 0.000000000000000
-6.248960971832275 -11.186244010925293 0.613227128982544 0.000000000000000
-6.231491565704346 -10.611134529113770 1.823716282844543 0.000000000000000
-6.229573249816895 -10.568967819213867 1.036665439605713 0.000000000000000
-6.228431224822998 -10.938225746154785 0.723570466041565 0.000000000000000
-6.227844238281250 -4.109002113342285 0.529592156410217 0.000000000000000
-6.227694988250732 -9.187556266784668 0.852099120616913 0.000000000000000
-6.225505828857422 -10.728339195251465 1.048116564750671 0.000000000000000
-6.218843936920166 -12.762954711914062 0.270125776529312 0.000000000000000
-6.214758396148682 -10.135212898254395 0.271872788667679 0.000000000000000
-6.200559139251709 -10.112055778503418 1.002311944961548 0.000000000000000
-6.199757099151611 -12.981730461120605 0.716186642646790 0.000000000000000
-6.199161529541016 -13.294756889343262 1.562487363815308 0.000000000000000
-6.195305347442627 -12.852221488952637 0.765207767486572 0.000000000000000
-6.192006111145020 -9.382116317749023 1.665973544120789 0.000000000000000
-6.189487457275391 4.645677566528320 2.073658227920532 0.000000000000000
-6.186583995819092 -6.598653316497803 0.224219739437103 1.000000000000000
-6.178421974182129 -11.359375953674316 0.867937445640564 0.000000000000000
-6.176903247833252 -12.804903984069824 0.297801226377487 0.000000000000000
-6.172694206237793 -11.140880584716797 1.002393484115601 0.000000000000000
-6.171070575714111 -13.356030464172363 1.567147612571716 0.000000000000000
-6.167947769165039 -13.057830810546875 1.258368849754333 0.000000000000000
-6.167038917541504 -10.699733734130859 0.234971374273300 0.000000000000000
-6.166369915008545 -11.248188972473145 0.465881049633026 0.000000000000000
-6.165724277496338 -13.480781555175781 1.195305705070496 0.000000000000000
-6.162693500518799 -4.655569076538086 2.069517135620117 0.000000000000000
-6.162136554718018 -9.263536453247070 2.314184904098511 0.000000000000000
-6.161616325378418 -3.234646797180176 1.447485685348511 0.000000000000000
-6.161334991455078 -10.756558418273926 0.307286113500595 0.000000000000000
-6.160011768341064 -9.074740409851074 0.019142761826515 0.000000000000000
-6.157168865203857 -13.153714179992676 1.030863881111145 0.000000000000000
-6.152012348175049 -10.221690177917480 1.134040832519531 0.000000000000000
-6.147695541381836 -13.451293945312500 1.810690879821777 0.000000000000000
-6.146536827087402 -11.093670845031738 0.802368998527527 0.000000000000000
-6.145979881286621 -12.828226089477539 0.461934059858322 0.000000000000000
-6.142093181610107 -9.741406440734863 1.094675064086914 0.000000000000000
-6.141929626464844 -4.872922420501709 1.630763292312622 0.000000000000000
-6.139183521270752 -10.145387649536133 0.202846243977547 0.000000000000000
-6.138784885406494 -11.048274040222168 0.143393188714981 0.000000000000000
-6.135988235473633 -3.636334419250488 1.219189286231995 1.000000000000000
-6.127328395843506 -9.170888900756836 0.379375904798508 0.000000000000000
-6.123267650604248 -13.040956497192383 1.189532160758972 0.000000000000000
-6.119107246398926 -10.571315765380859 1.810228943824768 0.000000000000000
-6.117243289947510 -11.388556480407715 0.568947494029999 0.000000000000000
-6.113257408142090 -12.022835731506348 0.075330816209316 0.000000000000000
-6.109763145446777 -12.679287910461426 0.700673639774323 0.000000000000000
-6.109444618225098 -10.809851646423340 0.689862012863159 0.000000000000000
-6.107257366180420 -13.399918556213379 1.802913427352905 0.000000000000000
-6.105531215667725 -13.093955993652344 0.691434144973755 0.000000000000000
-6.102985858917236 -5.931994915008545 0.472851663827896 0.000000000000000
-6.101916313171387 -12.389268875122070 0.209718376398087 0.000000000000000
-6.099730968475342 -11.153398513793945 0.706281960010529 0.000000000000000
-6.099335670471191 -10.593377113342285 0.068271346390247 0.000000000000000
-6.098214626312256 -11.219372749328613 0.881739616394043 0.000000000000000
-6.096715927124023 -11.036897659301758 1.677900075912476 0.000000000000000
-6.096238136291504 -13.462809562683105 0.991966664791107 0.000000000000000
-6.090239524841309 0.862540125846863 1.648159742355347 0.000000000000000
-6.089801788330078 -10.687827110290527 0.683427095413208 0.000000000000000
-6.088148117065430 -11.021388053894043 1.063946127891541 0.000000000000000
-6.086915969848633 -3.474591732025146 0.703278243541718 0.000000000000000
-6.084975242614746 -4.058020114898682 1.959777951240540 0.000000000000000
-6.080298900604248 -13.159573554992676 0.470762491226196 0.000000000000000
-6.069546699523926 -11.116636276245117 1.877079010009766 0.000000000000000
-6.069215774536133 -10.054708480834961 1.562874317169189 1.000000000000000
-6.066181659698486 -13.037469863891602 0.965178549289703 0.000000000000000
-6.063511371612549 -10.422762870788574 0.577087461948395 0.000000000000000
-6.063099861145020 -5.082861423492432 0.668544828891754 0.000000000000000
-6.059279441833496 -12.797688484191895 0.759423732757568 0.000000000000000
-6.054471015930176 -10.372620582580566 1.470426797866821 0.000000000000000
-6.049502372741699 -5.630208492279053 0.443229228258133 0.000000000000000
-6.046584606170654 -9.288194656372070 1.642517447471619 0.000000000000000
-6.045720577239990 0.390005737543106 1.623313069343567 1.000000000000000
-6.044673919677734 -4.331074237823486 1.271083950996399 0.000000000000000
-6.044315814971924 -12.503826141357422 0.664664030075073 0.000000000000000
-6.038081169128418 -13.100020408630371 1.218873381614685 0.000000000000000
-6.034096717834473 -9.073801040649414 1.614956498146057 0.000000000000000
-6.033550262451172 -9.301866531372070 0.530622184276581 0.000000000000000
-6.032689094543457 -10.594468116760254 0.888880312442780 0.000000000000000
-6.032565116882324 -12.186689376831055 0.520008027553558 0.000000000000000
-6.022468566894531 -10.054053306579590 0.065456487238407 0.000000000000000
-6.019475936889648 -13.466795921325684 2.186113834381104 0.000000000000000
-6.018367290496826 -2.043898820877075 1.322042346000671 0.000000000000000
-6.016108512878418 0.644210100173950 1.258506178855896 0.000000000000000
-6.014900684356689 -5.646790027618408 0.747920513153076 0.000000000000000
-6.012205600738525 -10.950647354125977 0.621914923191071 0.000000000000000
-6.010380268096924 -3.543071746826172 0.700083374977112 0.000000000000000
-6.007660388946533 -3.151683568954468 0.615021049976349 0.000000000000000
-6.005255222320557 -13.582342147827148 0.196998611092567 0.000000000000000
-6.004513263702393 -9.203182220458984 0.399098485708237 0.000000000000000
-6.004099845886230 -13.613761901855469 0.712085425853729 0.000000000000000
-6.002932071685791 -10.671771049499512 0.987300634384155 0.000000000000000
-6.002857685089111 -4.728537082672119 0.726376712322235 0.000000000000000
-5.988977909088135 -6.240016460418701 0.347380787134171 0.000000000000000
-5.985455989837646 -5.339972972869873 0.414762616157532 0.000000000000000
-5.985288619995117 -12.352544784545898 2.855057477951050 0.000000000000000
-5.980739593505859 5.781789779663086 2.228949785232544 0.000000000000000
-5.980086803436279 -7.653612136840820 0.726902484893799 0.000000000000000
-5.979002952575684 -10.955346107482910 1.087530732154846 0.000000000000000
-5.971310138702393 -9.814907073974609 0.793290138244629 0.000000000000000
-5.970391750335693 -7.531682491302490 1.424375176429749 0.000000000000000
-5.969406604766846 2.702944755554199 1.755828499794006 0.000000000000000
-5.969239234924316 -5.398921489715576 0.664544939994812 0.000000000000000
-5.968461036682129 -5.457409381866455 0.811505615711212 0.000000000000000
-5.966345310211182 -9.806747436523438 0.969979345798492 0.000000000000000
-5.961383819580078 -12.710020065307617 0.698883652687073 0.000000000000000
-5.960216999053955 -13.643052101135254 0.483485788106918 0.000000000000000
-5.959811687469482 -10.989412307739258 1.032200574874878 0.000000000000000
-5.953850269317627 -9.661968231201172 2.360615491867065 0.000000000000000
-5.948203563690186 0.615945219993591 1.243843913078308 0.000000000000000
-5.946024894714355 -10.337116241455078 0.593673229217529 0.000000000000000
-5.942650794982910 -9.175053596496582 0.670511543750763 0.000000000000000
-5.940216064453125 -3.418398380279541 0.687703073024750 0.000000000000000
-5.938112735748291 -9.630406379699707 0.824890255928040 0.000000000000000
-5.937877655029297 -7.395270347595215 0.271541774272919 0.000000000000000
-5.936195850372314 -9.863106727600098 0.683921158313751 0.000000000000000
-5.935338497161865 -12.644157409667969 0.749140977859497 0.000000000000000
-5.934799194335938 -12.955559730529785 0.627161264419556 0.000000000000000
-5.932544708251953 -9.985191345214844 0.981430470943451 0.000000000000000
-5.931750774383545 -11.374421119689941 1.570561766624451 0.000000000000000
-5.929802417755127 -0.563456118106842 1.238956451416016 0.000000000000000
-5.927721977233887 -7.798742771148682 0.888042747974396 0.000000000000000
-5.923074722290039 -13.734748840332031 0.744627296924591 0.000000000000000
-5.919654369354248 -8.560555458068848 0.578250348567963 0.000000000000000
-5.918045997619629 -6.296791553497314 0.214208155870438 0.000000000000000
-5.914081096649170 -13.615749359130859 2.537450075149536 0.000000000000000
-5.911781787872314 2.457324981689453 1.715452671051025 0.000000000000000
-5.911693572998047 5.675253391265869 2.195820808410645 0.000000000000000
-5.903284072875977 -13.536552429199219 0.082479648292065 0.000000000000000
-5.899981498718262 -9.494221687316895 0.470455795526505 0.000000000000000
-5.897669792175293 -13.785534858703613 0.544568359851837 0.000000000000000
-5.891773700714111 -10.911172866821289 1.408447742462158 0.000000000000000
-5.891770362854004 -4.777194499969482 1.124136328697205 0.000000000000000
-5.886051654815674 -5.653598785400391 0.327796489000320 0.000000000000000
-5.885729789733887 -9.143726348876953 0.687961399555206 0.000000000000000
-5.883645534515381 -13.610633850097656 0.054347340017557 0.000000000000000
-5.882849693298340 11.041239738464355 3.352224349975586 0.000000000000000
-5.882105827331543 -10.443743705749512 0.573645591735840 0.000000000000000
-5.869540214538574 -13.216712951660156 0.553024470806122 0.000000000000000
-5.867920875549316 -9.851737976074219 0.548787593841553 0.000000000000000
-5.867404460906982 -11.025232315063477 1.253201127052307 0.000000000000000
-5.865741252899170 -9.794731140136719 0.788330316543579 0.000000000000000
-5.865556240081787 -8.234145164489746 0.880927681922913 0.000000000000000
-5.863619327545166 -10.787768363952637 0.658524274826050 0.000000000000000
-5.863263607025146 -7.126890659332275 0.655051708221436 0.000000000000000
-5.862410068511963 -7.731284141540527 0.427018404006958 0.000000000000000
-5.861437320709229 -8.539936065673828 0.735198557376862 0.000000000000000
-5.860340118408203 -11.947657585144043 0.662487566471100 0.000000000000000
-5.859976768493652 -6.511821269989014 1.298298239707947 0.000000000000000
-5.858080387115479 -10.688487052917480 1.621970176696777 0.000000000000000
-5.853675365447998 -7.652967929840088 0.572425186634064 0.000000000000000
-5.849388599395752 -13.213595390319824 2.470054388046265 0.000000000000000
-5.842316150665283 -10.608701705932617 0.346753776073456 0.000000000000000
-5.830801963806152 -10.352653503417969 0.385853856801987 0.000000000000000
-5.830080509185791 -10.254045486450195 0.541822373867035 0.000000000000000
-5.829814910888672 -11.776062011718750 0.856641650199890 0.000000000000000
-5.827884674072266 -5.991269588470459 0.480467319488525 0.000000000000000
-5.824069499969482 -3.913464546203613 0.704077005386353 0.000000000000000
-5.819270610809326 -8.234686851501465 0.114396907389164 0.000000000000000
-5.817092895507812 -13.552038192749023 3.951649427413940 0.000000000000000
-5.817033290863037 -9.561326026916504 0.427990168333054 0.000000000000000
-5.815344333648682 -9.634126663208008 0.777033090591431 0.000000000000000
-5.814045906066895 -6.271131038665771 0.080599501729012 0.000000000000000
-5.808810710906982 -10.051430702209473 1.720509171485901 0.000000000000000
-5.806423664093018 -9.772913932800293 0.434715718030930 0.000000000000000
-5.801590919494629 -13.780564308166504 1.147868990898132 0.000000000000000
-5.801558017730713 -3.127607107162476 0.661345124244690 1.000000000000000
-5.799014091491699 -5.394060611724854 0.044233396649361 0.000000000000000
-5.793914318084717 -5.953022480010986 0.589631438255310 0.000000000000000
-5.791654109954834 -11.863612174987793 0.403352707624435 0.000000000000000
-5.789780139923096 -9.442145347595215 0.423557400703430 0.000000000000000
-5.787216663360596 -10.305953025817871 0.088707275688648 0.000000000000000
-5.787174224853516 -7.949597358703613 0.243747279047966 0.000000000000000
-5.785488605499268 -10.380824089050293 0.431618690490723 0.000000000000000
-5.780442237854004 -13.698897361755371 1.084050059318542 0.000000000000000
-5.780053615570068 -4.720145702362061 1.105957746505737 0.000000000000000
-5.778560161590576 -9.821019172668457 1.395082592964172 0.000000000000000
-5.777718067169189 -5.165513992309570 0.948850691318512 0.000000000000000
-5.777523994445801 -8.779406547546387 0.847451806068420 0.000000000000000
-5.769010066986084 -11.358565330505371 0.095611736178398 0.000000000000000
-5.766822814941406 -13.501835823059082 0.730904221534729 0.000000000000000
-5.766408443450928 -13.125039100646973 0.052544068545103 0.000000000000000
-5.764989376068115 -12.740753173828125 0.319791167974472 0.000000000000000
-5.764255046844482 -9.958276748657227 0.639270603656769 0.000000000000000
-5.756174087524414 -7.203415393829346 0.530052065849304 0.000000000000000
-5.755417823791504 -8.988433837890625 0.634103775024414 0.000000000000000
-5.750892162322998 -12.991095542907715 0.161181211471558 0.000000000000000
-5.747938632965088 -8.661510467529297 0.657654702663422 0.000000000000000
-5.746480941772461 -11.278594017028809 0.216528967022896 0.000000000000000
-5.745976924896240 -11.445496559143066 0.736196219921112 0.000000000000000
-5.744991302490234 -13.831383705139160 0.572742581367493 0.000000000000000
-5.738722324371338 -7.130390644073486 0.526149570941925 0.000000000000000
-5.737364768981934 -13.146069526672363 0.493367463350296 0.000000000000000
-5.735793113708496 -9.812488555908203 0.565829217433929 0.000000000000000
-5.733014583587646 -7.951654911041260 0.148861795663834 0.000000000000000
-5.732951641082764 -11.021349906921387 1.520980358123779 0.000000000000000
-5.726973056793213 -7.868632793426514 0.882264494895935 0.000000000000000
-5.725375175476074 -13.118597984313965 1.154154777526855 0.000000000000000
-5.719326496124268 -11.759677886962891 1.740161776542664 0.000000000000000
-5.718912124633789 -11.203687667846680 0.166862547397614 0.000000000000000
-5.712170124053955 -2.848979949951172 0.606764853000641 0.000000000000000
-5.711760997772217 -8.424195289611816 0.350087374448776 0.000000000000000
-5.711603164672852 -8.815966606140137 1.193117737770081 0.000000000000000
-5.696798324584961 -12.827742576599121 0.752782821655273 0.000000000000000
-5.695784091949463 -7.766933917999268 0.090778119862080 0.000000000000000
-5.692939758300781 -12.967648506164551 1.733888387680054 0.000000000000000
-5.692199707031250 -11.467363357543945 0.809945702552795 0.000000000000000
-5.692149639129639 0.407118737697601 1.529103040695190 1.000000000000000
-5.690155506134033 6.366550445556641 2.287960290908813 0.000000000000000
-5.688309192657471 -8.187147140502930 0.611492872238159 0.000000000000000
-5.687149047851562 -10.376609802246094 0.270592540502548 0.000000000000000
-5.685268878936768 -8.112773895263672 0.588556528091431 0.000000000000000
-5.684001445770264 -12.789299011230469 1.713472604751587 0.000000000000000
-5.683384418487549 -11.582801818847656 1.090216398239136 0.000000000000000
-5.679944038391113 -3.321618080139160 1.763075351715088 0.000000000000000
-5.677876949310303 -9.556553840637207 0.596185147762299 0.000000000000000
-5.675060749053955 -11.557677268981934 0.071912780404091 0.000000000000000
-5.669458866119385 -8.332343101501465 0.598757207393646 0.000000000000000
-5.668140411376953 -8.980678558349609 0.774279892444611 0.000000000000000
-5.667520046234131 -8.840960502624512 1.285712122917175 0.000000000000000
-5.667512893676758 -12.432766914367676 0.102546215057373 0.000000000000000
-5.664465427398682 -8.417550086975098 0.348987340927124 0.000000000000000
-5.664315700531006 -13.240080833435059 0.301654607057571 0.000000000000000
-5.659486770629883 -10.840341567993164 0.420627415180206 0.000000000000000
-5.656529426574707 -7.508101940155029 0.377559900283813 0.000000000000000
-5.656265735626221 -12.469749450683594 0.866265535354614 0.000000000000000
-5.651007652282715 -13.203246116638184 1.102554321289062 0.000000000000000
-5.645222187042236 -13.591184616088867 1.016204953193665 0.000000000000000
-5.644778728485107 -10.855546951293945 0.115319877862930 0.000000000000000
-5.644369602203369 -9.220888137817383 1.323627114295959 0.000000000000000
-5.644210815429688 -13.723786354064941 1.253900408744812 0.000000000000000
-5.638908863067627 -10.024624824523926 0.572591364383698 0.000000000000000
-5.638662338256836 -9.882424354553223 0.566425859928131 0.000000000000000
-5.634377002716064 -10.720088958740234 0.649526834487915 0.000000000000000
-5.632322311401367 -12.105017662048340 0.484899580478668 0.000000000000000
-5.631155490875244 -9.757777214050293 0.365860074758530 0.000000000000000
-5.631095409393311 -10.141228675842285 2.412747621536255 0.000000000000000
-5.630494594573975 -13.343540191650391 0.386834889650345 0.000000000000000
-5.629321575164795 -10.184050559997559 0.422617584466934 0.000000000000000
-5.626093864440918 -12.845829963684082 2.916964530944824 0.000000000000000
-5.623985290527344 -10.558499336242676 0.710727632045746 0.000000000000000
-5.623250961303711 -13.622109413146973 0.450259864330292 0.000000000000000
-5.617691040039062 -7.736631393432617 0.237006798386574 0.000000000000000
-5.617079257965088 -8.877791404724121 1.286198139190674 0.000000000000000
-5.616911888122559 -11.188410758972168 0.142031863331795 0.000000000000000
-5.615447044372559 -11.193289756774902 0.166119754314423 0.000000000000000
-5.614272594451904 -7.768935203552246 0.532540619373322 0.000000000000000
-5.614006996154785 -13.049372673034668 1.287824511528015 0.000000000000000
-5.612585067749023 0.381740868091583 1.507362246513367 0.000000000000000
-5.610283374786377 3.202775239944458 1.730981826782227 0.000000000000000
-5.609634399414062 -10.429557800292969 0.475642025470734 0.000000000000000
-5.609588146209717 -8.389319419860840 0.017613852396607 0.000000000000000
-5.602598190307617 -9.565458297729492 0.381301015615463 0.000000000000000
-5.599415302276611 2.799577951431274 0.545501530170441 0.000000000000000
-5.597288608551025 -7.637092590332031 0.252905845642090 0.000000000000000
-5.597155094146729 -12.385953903198242 0.049817174673080 0.000000000000000
-5.593558788299561 -13.685427665710449 0.679113447666168 0.000000000000000
-5.593214511871338 -7.806185722351074 0.127388536930084 0.000000000000000
-5.589150428771973 -12.554030418395996 0.235069036483765 0.000000000000000
-5.588119029998779 -8.764162063598633 0.537456333637238 0.000000000000000
-5.582742691040039 -13.710181236267090 1.250869274139404 0.000000000000000
-5.581354141235352 -7.741302490234375 0.291581749916077 0.000000000000000
-5.577441215515137 -13.292880058288574 0.967589497566223 0.000000000000000
-5.574221611022949 -12.849256515502930 0.401016354560852 0.000000000000000
-5.573484897613525 -9.560084342956543 1.051902413368225 0.000000000000000
-5.573183536529541 -7.181798934936523 0.680332958698273 0.000000000000000
-5.570857524871826 -11.600247383117676 2.676667451858521 0.000000000000000
-5.570543766021729 -12.465945243835449 2.333914995193481 0.000000000000000
-5.570498466491699 -9.984413146972656 0.393263906240463 0.000000000000000
-5.569877624511719 2.498646020889282 1.635736346244812 0.000000000000000
-5.567331314086914 -9.750290870666504 0.429365843534470 0.000000000000000
-5.563787937164307 13.716374397277832 3.966143131256104 0.000000000000000
-5.563612461090088 2.901293277740479 1.681288599967957 0.000000000000000
-5.560239315032959 -9.884769439697266 0.390101313591003 0.000000000000000
-5.559370994567871 -9.310409545898438 2.255536079406738 0.000000000000000
-5.555281639099121 -9.974320411682129 0.261081993579865 0.000000000000000
-5.555073261260986 -6.086995601654053 0.718075811862946 0.000000000000000
-5.549979686737061 -9.886710166931152 0.564437031745911 0.000000000000000
-5.540240287780762 -7.974033355712891 0.446012318134308 0.000000000000000
-5.540222167968750 -13.605758666992188 1.954911947250366 0.000000000000000
-5.539073944091797 -7.455107212066650 0.551786541938782 0.000000000000000
-5.531564235687256 -9.202068328857422 0.493183165788651 0.000000000000000
-5.531527042388916 -3.129331111907959 0.604115247726440 0.000000000000000
-5.530608654022217 -11.213979721069336 1.188547492027283 0.000000000000000
-5.530397415161133 -3.286190986633301 1.723734855651855 1.000000000000000
-5.527948856353760 -10.248514175415039 0.422907918691635 0.000000000000000
-5.522042751312256 -7.126162052154541 0.396768301725388 0.000000000000000
-5.520672321319580 -9.796018600463867 0.278738230466843 0.000000000000000
-5.515158653259277 -6.947431564331055 0.772938489913940 0.000000000000000
-5.514955043792725 13.460903167724609 3.897814989089966 0.000000000000000
-5.513706207275391 -9.818881988525391 0.257515579462051 0.000000000000000
-5.512139797210693 -9.616563796997070 0.509151518344879 0.000000000000000
-5.510203361511230 -10.682224273681641 0.090208247303963 0.000000000000000
-5.509859561920166 -6.901589870452881 0.117148660123348 0.000000000000000
-5.508897304534912 -2.872518301010132 1.664724111557007 0.000000000000000
-5.506538391113281 -10.656854629516602 0.828284144401550 0.000000000000000
-5.502157688140869 -9.896808624267578 1.386333107948303 0.000000000000000
-5.501381874084473 -3.112277269363403 1.314711213111877 0.000000000000000
-5.500608921051025 -6.697981357574463 0.755229711532593 0.000000000000000
-5.499770164489746 -11.058854103088379 0.353622466325760 0.000000000000000
-5.496562480926514 -8.489246368408203 0.367304205894470 0.000000000000000
-5.495514869689941 -3.188072919845581 0.487744808197021 0.000000000000000
-5.492883682250977 -9.126535415649414 2.215622425079346 0.000000000000000
-5.492500305175781 -10.903552055358887 0.279188573360443 0.000000000000000
-5.491906166076660 -9.605728149414062 1.256768703460693 0.000000000000000
-5.490301609039307 -12.548294067382812 3.670054197311401 0.000000000000000
-5.488276481628418 -11.276601791381836 0.262701719999313 0.000000000000000
-5.487134933471680 -9.715089797973633 0.641388237476349 0.000000000000000
-5.484426498413086 -9.766740798950195 1.490587353706360 0.000000000000000
-5.483666419982910 -9.909922599792480 0.215491890907288 0.000000000000000
-5.482956886291504 -8.892235755920410 0.600526750087738 0.000000000000000
-5.479101657867432 -9.003753662109375 0.058866165578365 0.000000000000000
-5.478807449340820 5.333675861358643 2.048811674118042 0.000000000000000
-5.476733684539795 -8.518460273742676 0.816588640213013 0.000000000000000
-5.475663661956787 -13.396979331970215 0.887729883193970 0.000000000000000
-5.475395679473877 -3.592015027999878 0.970498502254486 0.000000000000000
-5.471183300018311 -8.900588035583496 0.822251379489899 0.000000000000000
-5.467512607574463 -8.735591888427734 0.979605436325073 0.000000000000000
-5.464657306671143 -8.666988372802734 0.608720719814301 0.000000000000000
-5.464439392089844 -10.818218231201172 0.021153381094337 0.000000000000000
-5.461065769195557 -8.954039573669434 0.501939892768860 0.000000000000000
-5.459084510803223 -9.767082214355469 0.492442965507507 1.000000000000000
-5.456615924835205 -10.541286468505859 0.225840374827385 0.000000000000000
-5.452990531921387 -12.504003524780273 0.915620386600494 0.000000000000000
-5.447353363037109 -3.167762041091919 0.483764469623566 0.000000000000000
-5.447263240814209 -10.725079536437988 1.016457557678223 0.000000000000000
-5.443058967590332 -10.892324447631836 0.817307710647583 0.000000000000000
-5.440975666046143 -11.459186553955078 0.411949604749680 0.000000000000000
-5.440964221954346 -10.786240577697754 0.415539711713791 0.000000000000000
-5.434141159057617 -9.492770195007324 1.165086865425110 0.000000000000000
-5.429964542388916 -8.712755203247070 0.530846536159515 0.000000000000000
-5.424959182739258 -5.374820709228516 1.016237616539001 0.000000000000000
-5.423544406890869 -7.505008697509766 0.087272152304649 0.000000000000000
-5.416287899017334 -9.379775047302246 0.435028642416000 0.000000000000000
-5.414030551910400 -10.356526374816895 0.199904471635818 0.000000000000000
-5.410174846649170 -13.456875801086426 1.775692343711853 0.000000000000000
-5.409417152404785 -11.314642906188965 0.262701719999313 0.000000000000000
-5.401566505432129 -10.477006912231445 0.111097633838654 0.000000000000000
-5.397938251495361 -9.377453804016113 0.413774758577347 0.000000000000000
-5.394536972045898 -12.951897621154785 0.617488265037537 0.000000000000000
-5.393602848052979 -12.445405006408691 1.361029148101807 0.000000000000000
-5.391459941864014 -13.170612335205078 2.960136651992798 0.000000000000000
-5.386121273040771 -8.809355735778809 0.981498062610626 0.000000000000000
-5.386075019836426 -0.530766427516937 1.125731706619263 0.000000000000000
-5.385972499847412 -8.850714683532715 0.695421457290649 0.000000000000000
-5.385530948638916 -8.173174858093262 0.280242085456848 0.000000000000000
-5.383357524871826 -9.454127311706543 0.986272811889648 0.000000000000000
-5.373092174530029 -12.774594306945801 0.609925746917725 0.000000000000000
-5.369027137756348 -8.506759643554688 0.578259468078613 1.000000000000000
-5.368442535400391 9.209480285644531 2.856327056884766 0.000000000000000
-5.368216991424561 -8.801803588867188 1.098147273063660 0.000000000000000
-5.367705821990967 -9.061131477355957 0.301534980535507 0.000000000000000
-5.363894939422607 1.783393621444702 1.514609098434448 1.000000000000000
-5.362471103668213 -8.954360008239746 0.238677427172661 0.000000000000000
-5.361964702606201 -9.493473052978516 0.794931232929230 0.000000000000000
-5.361389636993408 -10.706919670104980 0.204830244183540 0.000000000000000
-5.359486103057861 -8.807190895080566 0.215958237648010 0.000000000000000
-5.358519554138184 -7.526810646057129 0.104822240769863 0.000000000000000
-5.356305122375488 -10.259618759155273 0.576171278953552 0.000000000000000
-5.355226039886475 -1.353689551353455 0.818619847297668 0.000000000000000
-5.352355003356934 -0.925282239913940 1.129804491996765 0.000000000000000
-5.340332508087158 -10.792065620422363 0.599440872669220 0.000000000000000
-5.328433990478516 -11.980238914489746 0.652742147445679 0.000000000000000
-5.326147556304932 -8.417974472045898 0.361787348985672 0.000000000000000
-5.322347640991211 -9.056503295898438 0.998531341552734 0.000000000000000
-5.321941375732422 -8.983877182006836 0.459554791450500 0.000000000000000
-5.321769237518311 -10.688763618469238 0.870555818080902 0.000000000000000
-5.320760726928711 -10.446188926696777 0.335649430751801 0.000000000000000
-5.318040847778320 -7.778738498687744 0.741595447063446 0.000000000000000
-5.314449787139893 -10.775691032409668 0.159381598234177 0.000000000000000
-5.313249111175537 -9.014350891113281 0.078530706465244 0.000000000000000
-5.312241554260254 -3.453239917755127 0.552098929882050 0.000000000000000
-5.310727596282959 -13.935150146484375 3.101871252059937 0.000000000000000
