# This PCD file was generated using the MATLAB® pcwrite function
# from Computer Vision Toolbox®.
# .PCD v.7 - Point Cloud Data file format
VERSION .7
FIELDS x y z intensity
SIZE 8 8 8 8
TYPE F F F F
COUNT 1 1 1 1
WIDTH 653
HEIGHT 1
VIEWPOINT 0 0 0 1 0 0 0
POINTS 653
DATA ascii
4.971588611602783 -4.682039737701416 0.649158895015717 0.000000000000000
4.978138446807861 -1.932092308998108 0.507593095302582 0.000000000000000
4.998021602630615 -5.407586097717285 1.091297745704651 0.000000000000000
4.999535083770752 -1.473434567451477 1.396587610244751 0.000000000000000
5.005391597747803 -1.692673802375793 0.293563008308411 0.000000000000000
5.012438774108887 -5.893970966339111 0.776361703872681 0.000000000000000
5.012603759765625 -1.499276995658875 1.088261604309082 0.000000000000000
5.013641357421875 -5.127095699310303 1.921472668647766 0.000000000000000
5.016829490661621 -2.799446105957031 1.194969892501831 0.000000000000000
5.034966945648193 -1.974398493766785 1.124917149543762 0.000000000000000
5.051708221435547 -1.726434826850891 0.912538528442383 0.000000000000000
5.053488731384277 -1.454220414161682 0.779330849647522 0.000000000000000
5.060340881347656 -13.427938461303711 3.845016002655029 0.000000000000000
5.065361022949219 -4.902508735656738 0.614253461360931 0.000000000000000
5.066398620605469 -4.732931613922119 0.695690333843231 1.000000000000000
5.085452556610107 -11.764177322387695 1.569103479385376 0.000000000000000
5.091664314270020 -4.261520862579346 1.134944558143616 0.000000000000000
5.111308574676514 -13.421026229858398 3.848121881484985 0.000000000000000
5.125182628631592 -6.289471626281738 0.706964373588562 0.000000000000000
5.125386714935303 -6.384272575378418 0.778233647346497 0.000000000000000
5.129724025726318 -3.506874799728394 1.062157154083252 0.000000000000000
5.131309986114502 -1.470313191413879 0.568562328815460 0.000000000000000
5.136882781982422 -9.132143020629883 1.282795548439026 0.000000000000000
5.146016120910645 -1.558771252632141 1.118400573730469 0.000000000000000
5.146399974822998 -4.811536312103271 0.613906264305115 0.000000000000000
5.147047996520996 -3.458802938461304 1.661618232727051 0.000000000000000
5.148939609527588 -3.357960462570190 1.647124528884888 0.000000000000000
5.155183315277100 -3.572813749313354 0.546543240547180 0.000000000000000
5.162045001983643 -4.716734886169434 0.744808256626129 0.000000000000000
5.162547588348389 -5.240807056427002 1.971165895462036 0.000000000000000
5.164850711822510 -3.024628639221191 0.521542489528656 0.000000000000000
5.180681228637695 -2.180737495422363 0.509568214416504 0.000000000000000
5.183969974517822 -1.025607585906982 0.405688554048538 0.000000000000000
5.193122386932373 -1.471561551094055 1.446280837059021 0.000000000000000
5.197619438171387 -6.599780082702637 0.677382767200470 0.000000000000000
5.209054470062256 -3.779600858688354 0.456808626651764 0.000000000000000
5.212868213653564 -5.992070198059082 0.640411257743835 0.000000000000000
5.218529224395752 -5.163804054260254 1.254909038543701 0.000000000000000
5.229450225830078 -5.425477981567383 0.656615734100342 0.000000000000000
5.236561775207520 -5.103727340698242 0.637170732021332 0.000000000000000
5.256717681884766 -6.420624256134033 1.015931248664856 0.000000000000000
5.260040760040283 -1.281092405319214 0.490788996219635 0.000000000000000
5.261182785034180 -3.405044794082642 1.679218053817749 0.000000000000000
5.265635490417480 -2.494791030883789 0.584667444229126 0.000000000000000
5.271759986877441 -1.533683180809021 1.471127629280090 0.000000000000000
5.285813331604004 -4.943262577056885 1.505319952964783 0.000000000000000
5.287166595458984 -6.564638614654541 0.565766572952271 0.000000000000000
5.288221359252930 -1.662703156471252 0.821551859378815 0.000000000000000
5.290569305419922 -3.979206562042236 1.131574749946594 0.000000000000000
5.325494289398193 -1.899884939193726 0.837971210479736 0.000000000000000
5.337002754211426 -1.588899731636047 0.593135118484497 0.000000000000000
5.339832782745361 -1.683028101921082 0.487861007452011 0.000000000000000
5.344462394714355 -5.741673469543457 1.631577730178833 0.000000000000000
5.353492259979248 -0.774216055870056 0.342212766408920 0.000000000000000
5.353964328765869 -1.573625206947327 0.594406127929688 0.000000000000000
5.360591888427734 -6.166437149047852 0.643050789833069 0.000000000000000
5.361046314239502 -9.027597427368164 1.397194862365723 0.000000000000000
5.361882686614990 -2.298327445983887 0.554529368877411 0.000000000000000
5.363118648529053 -6.126025199890137 0.867248296737671 0.000000000000000
5.364380359649658 -12.209979057312012 1.632781386375427 0.000000000000000
5.367360591888428 -2.234656333923340 0.506611526012421 0.000000000000000
5.370458126068115 -6.553945541381836 0.768144309520721 0.000000000000000
5.372686862945557 -2.949021100997925 1.274797439575195 0.000000000000000
5.374252796173096 -2.718970298767090 0.801487505435944 0.000000000000000
5.377713203430176 -2.609885215759277 0.678943991661072 0.000000000000000
5.377806186676025 -9.128245353698730 1.409858226776123 0.000000000000000
5.389553070068359 -5.201177597045898 0.575006127357483 0.000000000000000
5.409652233123779 -6.991198062896729 0.801369190216064 0.000000000000000
5.413772106170654 -6.637702465057373 0.674120604991913 0.000000000000000
5.429366111755371 -3.281927585601807 1.319598674774170 0.000000000000000
5.436253547668457 -1.144012808799744 0.823311090469360 0.000000000000000
5.440141677856445 -1.709426283836365 0.496889054775238 0.000000000000000
5.443833827972412 -1.165466904640198 0.825070321559906 0.000000000000000
5.444987297058105 -1.731645584106445 1.188453435897827 0.000000000000000
5.447565555572510 -5.415523529052734 0.589702785015106 0.000000000000000
5.455639362335205 -3.379740715026855 0.581796169281006 0.000000000000000
5.455956935882568 -8.724240303039551 1.096028923988342 0.000000000000000
5.460368156433105 -3.275993347167969 1.324486017227173 0.000000000000000
5.461737155914307 -3.492390155792236 0.862693965435028 0.000000000000000
5.465455055236816 -3.121361017227173 1.686464905738831 0.000000000000000
5.468668937683105 -4.609615802764893 1.222559094429016 1.000000000000000
5.469861507415771 -1.008941054344177 0.255493491888046 0.000000000000000
5.489864826202393 -4.600994586944580 0.494600832462311 0.000000000000000
5.491115570068359 -5.249991893768311 1.125895500183105 0.000000000000000
5.491845130920410 -5.138818264007568 0.681831955909729 0.000000000000000
5.494508743286133 -5.350831508636475 0.769572496414185 0.000000000000000
5.506069183349609 -2.382917165756226 1.247916698455811 0.000000000000000
5.508064746856689 -4.004487514495850 0.549107611179352 0.000000000000000
5.518797397613525 -5.887620925903320 0.479432761669159 0.000000000000000
5.520279407501221 -1.668878555297852 0.442736357450485 0.000000000000000
5.525819778442383 -1.705349683761597 0.443961054086685 0.000000000000000
5.531438827514648 -6.403262138366699 0.961085021495819 0.000000000000000
5.538854122161865 -8.748747825622559 1.267726659774780 0.000000000000000
5.542961120605469 -3.838271856307983 1.806557059288025 0.000000000000000
5.545337677001953 -3.844357728958130 1.403499007225037 0.000000000000000
5.545855998992920 -4.008484840393066 0.538543283939362 0.000000000000000
5.547435760498047 -2.772017240524292 0.284860551357269 0.000000000000000
5.547627449035645 -1.340165138244629 0.438143670558929 0.000000000000000
5.547766208648682 -5.468549251556396 0.884794056415558 0.000000000000000
5.559376239776611 -6.780632019042969 1.823815703392029 0.000000000000000
5.569462776184082 -4.219490051269531 0.633439183235168 0.000000000000000
5.574409961700439 -12.400151252746582 2.014883995056152 0.000000000000000
5.583781242370605 -6.235475540161133 0.707276642322540 0.000000000000000
5.586927890777588 -6.181875228881836 0.726062178611755 0.000000000000000
5.595444202423096 -8.085671424865723 0.830881595611572 0.000000000000000
5.597084999084473 -10.896360397338867 2.547965764999390 0.000000000000000
5.600253105163574 -2.156916141510010 0.522931456565857 0.000000000000000
5.605728626251221 -4.307336807250977 1.208405971527100 0.000000000000000
5.610213279724121 -5.563603401184082 0.484639286994934 0.000000000000000
5.611968517303467 -1.806344628334045 0.441216349601746 0.000000000000000
5.614013671875000 -1.797167897224426 0.452534109354019 0.000000000000000
5.620703220367432 -1.831050276756287 0.876087486743927 0.000000000000000
5.626404285430908 -6.434690952301025 0.744812726974487 0.000000000000000
5.629244804382324 -1.324577808380127 0.443961054086685 0.000000000000000
5.631373882293701 -2.026419878005981 1.603642821311951 0.000000000000000
5.634968280792236 -4.176967620849609 1.198970437049866 0.000000000000000
5.638501167297363 -1.947878360748291 1.019697785377502 0.000000000000000
5.660658836364746 -5.293816089630127 0.580029368400574 0.000000000000000
5.665318012237549 -5.281330108642578 0.594601690769196 0.000000000000000
5.667783260345459 -6.706677913665771 0.691067814826965 0.000000000000000
5.672820091247559 -4.145493984222412 1.200992345809937 1.000000000000000
5.679481029510498 -4.507798671722412 0.772346615791321 0.000000000000000
5.685415267944336 -5.919589042663574 1.092218041419983 0.000000000000000
5.691672801971436 -4.549948692321777 0.776159644126892 0.000000000000000
5.704657554626465 -4.640679359436035 0.666664063930511 0.000000000000000
5.704959869384766 -1.938682913780212 0.474206805229187 0.000000000000000
5.705676555633545 -8.399116516113281 2.720705747604370 0.000000000000000
5.706140995025635 -9.532753944396973 1.478451609611511 0.000000000000000
5.714167118072510 -10.862684249877930 1.819025039672852 0.000000000000000
5.716185092926025 -5.750407695770264 0.622464001178741 0.000000000000000
5.716401576995850 -2.660866260528564 0.289632707834244 0.000000000000000
5.733072280883789 -2.392789125442505 0.440949171781540 0.000000000000000
5.751079082489014 -4.329972743988037 0.497080743312836 0.000000000000000
5.759638786315918 -4.766142368316650 0.849131405353546 0.000000000000000
5.761730194091797 -9.171466827392578 1.326057672500610 0.000000000000000
5.765721321105957 -2.129831075668335 0.341491669416428 0.000000000000000
5.769743919372559 -6.242110729217529 0.636151611804962 0.000000000000000
5.772249698638916 -6.331177234649658 0.746548891067505 0.000000000000000
5.776423454284668 -8.439727783203125 2.740375995635986 0.000000000000000
5.777803897857666 -2.262086629867554 0.622606873512268 0.000000000000000
5.806805133819580 -3.931650400161743 1.879026293754578 0.000000000000000
5.816167831420898 -1.340415954589844 0.481272906064987 0.000000000000000
5.816257953643799 -9.702112197875977 1.933584332466125 0.000000000000000
5.816321372985840 -2.867787361145020 0.547970950603485 0.000000000000000
5.830348491668701 -2.038789272308350 0.915376543998718 0.000000000000000
5.831585884094238 -2.411706686019897 0.411406606435776 0.000000000000000
5.841276168823242 -4.598446846008301 0.570719599723816 0.000000000000000
5.850059032440186 -8.351336479187012 0.802479743957520 0.000000000000000
5.850116729736328 -4.777872562408447 0.804545402526855 0.000000000000000
5.859153270721436 -4.814133167266846 0.861319959163666 0.000000000000000
5.866335391998291 -6.210203170776367 0.655837714672089 0.000000000000000
5.870556831359863 -5.055539608001709 1.148178935050964 0.000000000000000
5.874554634094238 -4.482993602752686 0.669914305210114 0.000000000000000
5.877563476562500 -2.076506853103638 1.065526962280273 0.000000000000000
5.881530284881592 -5.623262882232666 0.709047794342041 0.000000000000000
5.886610507965088 -2.645794391632080 1.342406511306763 0.000000000000000
5.891163825988770 -5.430881500244141 1.666604161262512 0.000000000000000
5.893378257751465 -4.352757930755615 0.780396342277527 1.000000000000000
5.893666744232178 -2.759665966033936 0.399172335863113 0.000000000000000
5.893931388854980 -5.217811107635498 0.713612198829651 0.000000000000000
5.897712707519531 -3.934921026229858 1.899731874465942 0.000000000000000
5.901087284088135 -5.316906452178955 0.846064865589142 0.000000000000000
5.902077198028564 -5.151976585388184 1.339153647422791 0.000000000000000
5.908046245574951 -11.212247848510742 1.878251791000366 0.000000000000000
5.908533096313477 -10.883069038391113 1.516119480133057 0.000000000000000
5.925365447998047 -4.383099079132080 0.565820693969727 1.000000000000000
5.928150177001953 -6.422924995422363 1.295366287231445 0.000000000000000
5.935079574584961 -8.589910507202148 1.185894846916199 0.000000000000000
5.935153961181641 -4.624051570892334 0.921143412590027 0.000000000000000
5.935858726501465 -2.754200458526611 0.401376336812973 0.000000000000000
5.947694301605225 -5.723193645477295 0.601797521114349 0.000000000000000
5.947767257690430 -1.470601558685303 0.555433034896851 0.000000000000000
5.956049919128418 -11.337869644165039 1.704282283782959 0.000000000000000
5.956583023071289 -2.082931518554688 0.350589215755463 0.000000000000000
5.956597328186035 -8.511327743530273 0.905233919620514 0.000000000000000
5.959661483764648 -4.445755481719971 0.556446075439453 0.000000000000000
5.965110301971436 -11.956840515136719 1.778151988983154 0.000000000000000
5.965278625488281 -2.643572092056274 0.500910520553589 0.000000000000000
5.966497898101807 -2.706774234771729 1.362770676612854 0.000000000000000
5.966889381408691 -4.785169601440430 0.693388402462006 0.000000000000000
5.971719264984131 -4.888144016265869 0.733568549156189 0.000000000000000
5.973918437957764 -6.079951286315918 0.742729365825653 0.000000000000000
5.979405403137207 -5.063910961151123 2.099540233612061 0.000000000000000
5.979753971099854 -2.429099082946777 0.420774489641190 0.000000000000000
5.990263462066650 -6.280731201171875 0.599307477474213 0.000000000000000
5.993043899536133 -1.478023171424866 0.537862420082092 0.000000000000000
5.994212627410889 -12.331446647644043 1.824584484100342 0.000000000000000
5.997924327850342 -1.839703440666199 1.304936528205872 0.000000000000000
5.998110771179199 -6.018664836883545 0.770311176776886 0.000000000000000
5.998311042785645 -6.366142272949219 0.762174308300018 0.000000000000000
5.998540878295898 -4.766499519348145 2.052952766418457 0.000000000000000
5.998753547668457 -5.085872650146484 0.747573733329773 0.000000000000000
6.002014160156250 -4.416664123535156 1.273779749870300 0.000000000000000
6.010899543762207 -1.936139702796936 0.935900688171387 0.000000000000000
6.014444351196289 -9.543016433715820 1.201522231101990 0.000000000000000
6.023413658142090 -12.502323150634766 1.846745491027832 0.000000000000000
6.026616096496582 -5.067874908447266 2.109892845153809 0.000000000000000
6.029827594757080 -3.735447406768799 1.212449669837952 0.000000000000000
6.030255794525146 -12.272393226623535 1.674099206924438 0.000000000000000
6.034370422363281 -3.418393611907959 1.858320832252502 0.000000000000000
6.035151481628418 -2.415354728698730 0.386203110218048 0.000000000000000
6.039584636688232 -2.388924121856689 1.740299344062805 0.000000000000000
6.041735172271729 -2.971854686737061 0.555926918983459 0.000000000000000
6.047136306762695 -11.717116355895996 1.614309906959534 0.000000000000000
6.054413318634033 -4.349095344543457 0.748006939888000 0.000000000000000
6.055540561676025 -12.239543914794922 1.817197561264038 0.000000000000000
6.056163311004639 -10.362220764160156 1.597171068191528 0.000000000000000
6.061443805694580 -8.414919853210449 1.536964654922485 0.000000000000000
6.063042163848877 -2.181753396987915 0.646568715572357 0.000000000000000
6.083729267120361 -7.881655693054199 0.841322362422943 0.000000000000000
6.085415840148926 -3.546347856521606 0.255806297063828 0.000000000000000
6.097404479980469 -4.552817344665527 1.300738096237183 0.000000000000000
6.097516536712646 -10.517075538635254 1.617749094963074 0.000000000000000
6.098788261413574 -5.286291122436523 1.379591226577759 0.000000000000000
6.106935977935791 -8.185328483581543 1.513508558273315 0.000000000000000
6.107280731201172 -8.896788597106934 0.890997111797333 0.000000000000000
6.109983444213867 -3.904192209243774 1.239408016204834 0.000000000000000
6.114261150360107 -6.045076370239258 1.274255752563477 0.000000000000000
6.120460033416748 -3.480863094329834 0.459026724100113 0.000000000000000
6.126760482788086 -5.585878849029541 1.103298544883728 0.000000000000000
6.134936809539795 -3.199228048324585 0.424396097660065 0.000000000000000
6.143103599548340 -8.130304336547852 1.356038808822632 0.000000000000000
6.144409179687500 -2.886232376098633 1.818980336189270 0.000000000000000
6.144927024841309 -10.327871322631836 2.054222583770752 0.000000000000000
6.145077705383301 -4.820435047149658 0.584507167339325 0.000000000000000
6.148056983947754 -2.460541009902954 0.629476010799408 0.000000000000000
6.159853935241699 -1.419962882995605 0.485295355319977 0.000000000000000
6.162736892700195 -8.349164962768555 1.178672075271606 0.000000000000000
6.168917655944824 -9.310330390930176 1.367375493049622 0.000000000000000
6.171119689941406 -5.872776031494141 0.654000580310822 0.000000000000000
6.171737194061279 -4.591731071472168 0.819373786449432 0.000000000000000
6.187926769256592 -1.780438780784607 0.612064123153687 0.000000000000000
6.190252304077148 -11.862029075622559 1.638128399848938 0.000000000000000
6.202198028564453 -5.465664863586426 0.938965141773224 0.000000000000000
6.204566478729248 -4.108425617218018 1.993942022323608 0.000000000000000
6.205915451049805 -6.059059143066406 1.285397410392761 0.000000000000000
6.206084728240967 -3.259510517120361 0.443487554788589 0.000000000000000
6.219106674194336 -2.806858301162720 0.418518722057343 0.000000000000000
6.219633579254150 -9.266966819763184 1.366403222084045 0.000000000000000
6.221766948699951 -3.860967397689819 0.153382286429405 0.000000000000000
6.230372428894043 -0.934915482997894 0.548973858356476 0.000000000000000
6.231521129608154 -2.769371032714844 0.418273836374283 0.000000000000000
6.232035636901855 -6.701306343078613 1.564255475997925 0.000000000000000
6.236005306243896 -7.502774715423584 0.884431362152100 0.000000000000000
6.236588478088379 -5.534767627716064 0.947090744972229 0.000000000000000
6.246419906616211 -9.301261901855469 0.946740269660950 0.000000000000000
6.250928878784180 -10.040974617004395 1.573954701423645 0.000000000000000
6.264376163482666 -10.892321586608887 1.672096133232117 0.000000000000000
6.270017623901367 -2.581882715225220 1.816909790039062 0.000000000000000
6.274023056030273 -11.842569351196289 1.783428430557251 0.000000000000000
6.275835514068604 -7.768846511840820 0.905377507209778 0.000000000000000
6.282079696655273 -5.839303970336914 0.777533948421478 0.000000000000000
6.287336349487305 -2.374783039093018 0.451113164424896 0.000000000000000
6.293823242187500 -0.984911203384399 0.944110393524170 0.000000000000000
6.303672790527344 -1.403494000434875 0.533215880393982 0.000000000000000
6.304064750671387 -3.754696846008301 0.308815449476242 0.000000000000000
6.308690071105957 -7.406920909881592 1.105089783668518 0.000000000000000
6.310561180114746 -2.099366664886475 0.667335569858551 0.000000000000000
6.312535762786865 -4.741653442382812 1.642167210578918 0.000000000000000
6.318059921264648 -2.207355499267578 0.606714844703674 0.000000000000000
6.321310520172119 -2.285038471221924 0.373444110155106 0.000000000000000
6.327336788177490 -3.482222795486450 0.610278666019440 0.000000000000000
6.330191135406494 -2.037521600723267 0.632125616073608 0.000000000000000
6.336984634399414 -3.194242000579834 0.325974464416504 0.000000000000000
6.341251850128174 -7.459909915924072 0.853149056434631 0.000000000000000
6.353258132934570 -2.221643209457397 0.586474895477295 0.000000000000000
6.363784790039062 -5.594264507293701 1.448334813117981 0.000000000000000
6.364882946014404 -4.900204181671143 0.663228392601013 0.000000000000000
6.365969657897949 -6.628174781799316 0.634577035903931 0.000000000000000
6.373740673065186 -5.642579555511475 1.455074429512024 1.000000000000000
6.376916885375977 -9.220434188842773 0.752480268478394 0.000000000000000
6.379353523254395 -9.302173614501953 1.281145691871643 0.000000000000000
6.385020256042480 -2.360877037048340 0.247240722179413 0.000000000000000
6.386602401733398 -7.925187110900879 1.354455947875977 0.000000000000000
6.387040138244629 -4.394944667816162 0.736975193023682 0.000000000000000
6.388331890106201 -3.544900894165039 0.617351412773132 0.000000000000000
6.389900684356689 -5.460962772369385 0.762004971504211 0.000000000000000
6.391788959503174 -6.827548027038574 0.537627518177032 0.000000000000000
6.393269538879395 -6.868429660797119 0.557479977607727 0.000000000000000
6.393750190734863 -8.878863334655762 0.818847417831421 0.000000000000000
6.397313117980957 -7.438087463378906 1.201132178306580 0.000000000000000
6.399896621704102 -3.938166379928589 0.287364840507507 0.000000000000000
6.406227588653564 -7.659588813781738 1.222520112991333 0.000000000000000
6.409125804901123 -6.638931274414062 0.982909619808197 0.000000000000000
6.412385463714600 -7.651199340820312 1.479497075080872 0.000000000000000
6.418754577636719 -5.044897079467773 1.086413979530334 0.000000000000000
6.424320220947266 -12.416032791137695 1.711528182029724 0.000000000000000
6.425983905792236 -3.704362869262695 1.542790055274963 0.000000000000000
6.429325580596924 -2.637907266616821 0.560359835624695 0.000000000000000
6.429454803466797 -3.405514240264893 0.348202884197235 0.000000000000000
6.434120178222656 -7.095596790313721 0.753835082054138 0.000000000000000
6.436159133911133 -8.357219696044922 1.123567342758179 0.000000000000000
6.438591480255127 -7.691735744476318 0.909349977970123 0.000000000000000
6.442620277404785 -2.118350028991699 0.680514574050903 0.000000000000000
6.443239688873291 -7.889222621917725 0.781983852386475 0.000000000000000
6.448858261108398 -3.347913742065430 0.613983452320099 0.000000000000000
6.453829765319824 -7.255338668823242 1.292194128036499 0.000000000000000
6.464632987976074 -2.311364650726318 0.381432205438614 0.000000000000000
6.466662883758545 -3.134744167327881 0.371592611074448 0.000000000000000
6.475278854370117 -3.392680883407593 0.377995789051056 0.000000000000000
6.482162952423096 -2.893639326095581 0.599837958812714 0.000000000000000
6.489536762237549 -6.864652633666992 1.006211280822754 0.000000000000000
6.491047859191895 -3.961220026016235 0.422482192516327 0.000000000000000
6.495132923126221 -7.078761577606201 0.570764601230621 0.000000000000000
6.497291564941406 -0.985987126827240 0.517202436923981 0.000000000000000
6.499288082122803 -2.510212898254395 0.791348993778229 0.000000000000000
6.501210212707520 -5.953505516052246 1.833590507507324 0.000000000000000
6.505391597747803 -5.227104663848877 0.560141086578369 0.000000000000000
6.508473396301270 -2.320635318756104 0.602100312709808 0.000000000000000
6.512684822082520 -7.803463459014893 1.244394302368164 0.000000000000000
6.536614418029785 -7.779548645019531 0.682027339935303 0.000000000000000
6.537882328033447 -1.344293951988220 0.422272890806198 0.000000000000000
6.539438247680664 -4.662985324859619 0.805914521217346 0.000000000000000
6.542655944824219 -3.280318021774292 0.364358246326447 0.000000000000000
6.544188499450684 -7.848449230194092 0.823982954025269 0.000000000000000
6.546296119689941 -6.323671817779541 0.575826704502106 0.000000000000000
6.548335552215576 -8.545068740844727 0.909692466259003 0.000000000000000
6.555131435394287 -7.240468025207520 0.851065754890442 0.000000000000000
6.557195186614990 -7.952250957489014 1.261893630027771 0.000000000000000
6.560078620910645 -8.140455245971680 0.883422195911407 0.000000000000000
6.562169551849365 -0.710098683834076 0.557738125324249 0.000000000000000
6.564518451690674 -4.290465831756592 1.340501546859741 0.000000000000000
6.565587997436523 -1.137496471405029 0.524420678615570 0.000000000000000
6.567485332489014 -1.339035034179688 0.584044277667999 0.000000000000000
6.578526496887207 -2.099222660064697 0.450179278850555 0.000000000000000
6.580869674682617 -12.742562294006348 1.908479452133179 0.000000000000000
6.588202953338623 -9.290406227111816 1.032498717308044 0.000000000000000
6.590145111083984 -4.774326801300049 1.692670345306396 0.000000000000000
6.590969085693359 -6.487791061401367 0.602927982807159 0.000000000000000
6.614552974700928 -5.161537647247314 0.708960592746735 0.000000000000000
6.618436336517334 -1.043047666549683 0.566158115863800 0.000000000000000
6.623967647552490 -2.291683197021484 0.389420330524445 0.000000000000000
6.632440090179443 -1.335888981819153 0.441071599721909 0.000000000000000
6.633854866027832 -6.441236019134521 1.230460047721863 0.000000000000000
6.641982078552246 -7.418744564056396 0.668365359306335 0.000000000000000
6.659931182861328 -2.923228502273560 0.826108753681183 0.000000000000000
6.661875724792480 -3.129303455352783 0.338088363409042 0.000000000000000
6.663948535919189 -5.146955013275146 0.516475141048431 1.000000000000000
6.669644832611084 -5.337852001190186 2.288995742797852 0.000000000000000
6.672134876251221 -2.176666021347046 1.199644446372986 0.000000000000000
6.674042701721191 -0.956513166427612 0.154180139303207 0.000000000000000
6.685351848602295 -10.365290641784668 1.313794255256653 0.000000000000000
6.687288761138916 -6.139805793762207 0.626861810684204 0.000000000000000
6.689934253692627 -6.681065082550049 0.634612262248993 0.000000000000000
6.693804264068604 -5.142278194427490 1.033430576324463 0.000000000000000
6.698462963104248 -3.747941255569458 0.500401556491852 0.000000000000000
6.701263427734375 -0.698892831802368 0.374331653118134 0.000000000000000
6.702920436859131 -7.376233577728271 0.649767458438873 0.000000000000000
6.703547000885010 -8.298309326171875 0.777770221233368 0.000000000000000
6.705652713775635 -11.850270271301270 1.811921119689941 1.000000000000000
6.706264495849609 -7.898808002471924 1.771160364151001 0.000000000000000
6.712893009185791 -4.411391258239746 2.152339220046997 0.000000000000000
6.719744205474854 -7.405128955841064 0.806300878524780 0.000000000000000
6.725209236145020 -6.675624370574951 0.617760419845581 0.000000000000000
6.726485729217529 -1.660152316093445 1.026793241500854 0.000000000000000
6.730921745300293 -1.030216097831726 0.647266328334808 0.000000000000000
6.732228755950928 -2.170299053192139 1.209079861640930 0.000000000000000
6.733581066131592 -1.399115800857544 0.448357731103897 0.000000000000000
6.733899116516113 -5.836790561676025 0.101101279258728 1.000000000000000
6.736131668090820 -9.383301734924316 0.976041734218597 0.000000000000000
6.737025737762451 -5.865082263946533 0.255743801593781 1.000000000000000
6.737611293792725 -5.309407234191895 0.410539031028748 1.000000000000000
6.747679233551025 -5.858642101287842 0.755101978778839 0.000000000000000
6.751341819763184 -4.122006893157959 0.302497327327728 0.000000000000000
6.753774642944336 -1.671890616416931 0.606267094612122 0.000000000000000
6.761672973632812 -7.527545928955078 0.917295098304749 0.000000000000000
6.762223243713379 -6.520174026489258 0.648629724979401 0.000000000000000
6.766956329345703 -7.146356105804443 0.660596787929535 0.000000000000000
6.769944190979004 -7.892494678497314 0.838450014591217 0.000000000000000
6.771553039550781 -0.915790557861328 0.649537444114685 0.000000000000000
6.775595664978027 -0.711187243461609 0.562509834766388 0.000000000000000
6.778338432312012 -9.236371040344238 0.791085779666901 0.000000000000000
6.779790878295898 -6.324248790740967 0.987569928169250 0.000000000000000
6.788475513458252 -3.318003654479980 0.492595016956329 0.000000000000000
6.804475784301758 -5.228431224822998 0.625648379325867 0.000000000000000
6.811097145080566 -3.903277873992920 0.300204545259476 0.000000000000000
6.824084281921387 -2.523222208023071 0.488348722457886 0.000000000000000
6.832130908966064 -3.396553993225098 0.306446373462677 0.000000000000000
6.839226245880127 -4.127638339996338 0.351569086313248 0.000000000000000
6.841917037963867 -3.401419162750244 0.542336344718933 0.000000000000000
6.842325687408447 -2.316265583038330 0.484866261482239 0.000000000000000
6.845242023468018 -6.450177669525146 0.852651000022888 0.000000000000000
6.847105503082275 -6.497206687927246 1.613454341888428 0.000000000000000
6.848808765411377 -9.446670532226562 1.057778477668762 0.000000000000000
6.852937698364258 -5.500849246978760 0.082823716104031 1.000000000000000
6.853645324707031 -3.460824012756348 0.633934438228607 0.000000000000000
6.854566574096680 -0.968104898929596 0.544820010662079 0.000000000000000
6.860269546508789 -3.296022415161133 0.276421785354614 0.000000000000000
6.865017414093018 -3.569286346435547 0.474598765373230 0.000000000000000
6.868503570556641 -3.288477420806885 0.663560450077057 0.000000000000000
6.870117187500000 -5.369648456573486 0.534841895103455 1.000000000000000
6.876022338867188 -9.233633995056152 0.794943451881409 0.000000000000000
6.876915931701660 -5.073435306549072 0.557129323482513 0.000000000000000
6.878084182739258 -5.723691940307617 0.756112396717072 0.000000000000000
6.878462791442871 -9.281472206115723 1.974695563316345 0.000000000000000
6.879266262054443 -3.298650264739990 0.321094065904617 0.000000000000000
6.887542724609375 -8.075115203857422 0.691922962665558 0.000000000000000
6.891458034515381 -5.484069347381592 0.116830319166183 1.000000000000000
6.893888950347900 -7.980451583862305 0.850345253944397 0.000000000000000
6.896639823913574 -2.575256109237671 0.622066617012024 0.000000000000000
6.899536132812500 -4.048581123352051 0.444449514150620 0.000000000000000
6.902975082397461 -0.982684552669525 0.662785589694977 0.000000000000000
6.905553817749023 -4.957027912139893 0.243380188941956 1.000000000000000
6.910100936889648 -6.859152793884277 0.785082459449768 0.000000000000000
6.912078380584717 -5.959191799163818 0.630168318748474 0.000000000000000
6.913533210754395 -4.655867099761963 1.424746274948120 0.000000000000000
6.920965194702148 -5.008286952972412 0.392417401075363 1.000000000000000
6.921225547790527 -3.166446924209595 0.663213193416595 0.000000000000000
6.924307823181152 -3.905787229537964 1.057921290397644 0.000000000000000
6.929308414459229 -0.725365281105042 0.588723540306091 0.000000000000000
6.929516792297363 -8.324150085449219 0.943776667118073 0.000000000000000
6.930824279785156 -9.741091728210449 1.357887983322144 0.000000000000000
6.931564331054688 -5.194723606109619 0.414554566144943 1.000000000000000
6.936561107635498 -9.668194770812988 1.456816315650940 0.000000000000000
6.937602996826172 -2.420546054840088 1.088952064514160 0.000000000000000
6.949983119964600 -1.005098819732666 0.552665889263153 0.000000000000000
6.962428569793701 -6.620042800903320 1.278475522994995 0.000000000000000
6.965867042541504 -3.380640268325806 0.624336659908295 0.000000000000000
6.973514080047607 -3.900240659713745 0.397770971059799 0.000000000000000
6.979823589324951 -6.465423583984375 1.013413667678833 0.000000000000000
6.981657028198242 -6.578720092773438 1.639738678932190 0.000000000000000
6.985997676849365 -3.649708032608032 1.168116688728333 0.000000000000000
6.990864753723145 -3.976530313491821 0.292101174592972 0.000000000000000
6.992609024047852 -6.844800472259521 1.111409664154053 0.000000000000000
6.995776653289795 -3.861716508865356 0.382430374622345 0.000000000000000
6.997447967529297 -1.036912441253662 0.447528451681137 0.000000000000000
6.999734878540039 -5.508446216583252 0.546351850032806 1.000000000000000
7.001025676727295 -5.868729591369629 0.613181650638580 0.000000000000000
7.002658843994141 -9.178339004516602 1.046583175659180 0.000000000000000
7.004819393157959 -5.402037143707275 0.423350423574448 1.000000000000000
7.013006210327148 -6.701305866241455 0.557599186897278 0.000000000000000
7.014312744140625 -6.876360893249512 0.985627889633179 0.000000000000000
7.014888763427734 -6.907002449035645 0.679766118526459 0.000000000000000
7.027100563049316 -3.815245389938354 0.505868792533875 0.000000000000000
7.033482074737549 -6.111526012420654 0.751325845718384 0.000000000000000
7.035562992095947 -3.686238050460815 0.288471698760986 0.000000000000000
7.037435054779053 -7.864862918853760 0.850988209247589 0.000000000000000
7.038245677947998 -5.586248397827148 0.430042982101440 0.000000000000000
7.040335178375244 -7.111470699310303 0.907183170318604 0.000000000000000
7.058291912078857 -5.334465503692627 0.542678475379944 1.000000000000000
7.059841156005859 -9.960643768310547 1.494731426239014 0.000000000000000
7.062228679656982 -2.769363641738892 0.721077442169189 0.000000000000000
7.064522266387939 -2.419002056121826 0.501207053661346 1.000000000000000
7.071425437927246 -9.291315078735352 0.806240677833557 0.000000000000000
7.079133510589600 -5.849295616149902 1.222017884254456 0.000000000000000
7.082048416137695 -3.365530729293823 0.330008685588837 0.000000000000000
7.082221508026123 -11.080123901367188 1.145865678787231 0.000000000000000
7.085736274719238 -5.439435005187988 1.858027458190918 0.000000000000000
7.087121486663818 -3.161913394927979 0.550832450389862 0.000000000000000
7.089218616485596 -1.782793402671814 0.617688238620758 0.000000000000000
7.089921474456787 -2.137738704681396 0.468490570783615 0.000000000000000
7.091788768768311 -6.385026931762695 1.083872675895691 0.000000000000000
7.095227241516113 -1.591302871704102 0.729636251926422 0.000000000000000
7.095258712768555 -8.583096504211426 1.117417693138123 0.000000000000000
7.106572151184082 -3.188007354736328 0.781553387641907 0.000000000000000
7.110808849334717 -3.660109043121338 1.064253091812134 0.000000000000000
7.118906497955322 -2.758526325225830 2.045705795288086 0.000000000000000
7.120507240295410 -3.404090881347656 0.791936814785004 0.000000000000000
7.121044635772705 -6.270538806915283 1.262646317481995 0.000000000000000
7.122640132904053 -3.350445508956909 0.104415103793144 1.000000000000000
7.124723434448242 -3.822484970092773 0.704533755779266 0.000000000000000
7.124917030334473 -4.460445880889893 0.954764962196350 0.000000000000000
7.125606536865234 -0.737868130207062 0.680954515933990 0.000000000000000
7.128523826599121 -2.939912080764771 1.603882551193237 0.000000000000000
7.145767688751221 -7.792227268218994 0.958464980125427 0.000000000000000
7.153963088989258 -10.039117813110352 1.640437602996826 0.000000000000000
7.157723426818848 -7.100735187530518 0.774023175239563 0.000000000000000
7.157802104949951 -10.119058609008789 1.649407505989075 0.000000000000000
7.162701606750488 -2.920274019241333 2.072623014450073 0.000000000000000
7.165043354034424 -10.509863853454590 1.692674160003662 0.000000000000000
7.166101932525635 -3.228996276855469 0.664166450500488 0.000000000000000
7.174624919891357 -2.650558471679688 1.017820596694946 0.000000000000000
7.186069965362549 -3.549704313278198 0.522520244121552 0.000000000000000
7.190091133117676 -9.013644218444824 1.156954646110535 0.000000000000000
7.191452026367188 -8.062437057495117 0.979411125183105 0.000000000000000
7.191594600677490 -2.078738927841187 0.387084215879440 0.000000000000000
7.195378780364990 -8.759485244750977 1.207453608512878 0.000000000000000
7.198482036590576 -3.350743770599365 0.796729207038879 0.000000000000000
7.200685501098633 -3.840125322341919 0.500557243824005 0.000000000000000
7.201649188995361 -10.015511512756348 1.510286331176758 0.000000000000000
7.207085609436035 -6.624469757080078 1.111861109733582 0.000000000000000
7.209902286529541 -2.635025739669800 1.021514058113098 0.000000000000000
7.209904193878174 -10.092256546020508 0.904296100139618 0.000000000000000
7.212799549102783 -6.844213008880615 0.901404917240143 0.000000000000000
7.219332695007324 -2.003183841705322 0.488431483507156 0.000000000000000
7.219850540161133 -9.457531929016113 1.131012797355652 0.000000000000000
7.221077919006348 -9.887334823608398 0.892661571502686 0.000000000000000
7.221425056457520 -0.801335275173187 0.889547467231750 0.000000000000000
7.223252296447754 -6.010928153991699 1.250510454177856 0.000000000000000
7.224114418029785 -3.140834331512451 0.894725441932678 0.000000000000000
7.229958057403564 -2.275158405303955 0.435703277587891 0.000000000000000
7.232056140899658 -9.337635993957520 1.122685313224792 0.000000000000000
7.240070819854736 -5.563134193420410 0.827732384204865 0.000000000000000
7.241415023803711 -3.887043952941895 0.694478273391724 0.000000000000000
7.243705272674561 -6.404632568359375 2.011166095733643 0.000000000000000
7.254715442657471 -2.587854385375977 0.576447129249573 0.000000000000000
7.256386756896973 -5.345178604125977 1.199329257011414 0.000000000000000
7.257028102874756 -8.167469978332520 1.240968823432922 0.000000000000000
7.259469985961914 -1.428988695144653 0.984579145908356 0.000000000000000
7.265450000762939 -6.674373149871826 0.662204086780548 0.000000000000000
7.265854358673096 -8.314932823181152 1.049631357192993 0.000000000000000
7.267008304595947 -8.178701400756836 0.713260889053345 0.000000000000000
7.272240161895752 -9.915178298950195 1.505425453186035 0.000000000000000
7.277315139770508 -5.958959579467773 1.151550889015198 0.000000000000000
7.278580665588379 -4.162074089050293 1.743988037109375 0.000000000000000
7.281650543212891 -1.459776043891907 0.988272666931152 0.000000000000000
7.283307075500488 -9.123313903808594 1.243465423583984 1.000000000000000
7.287976264953613 -5.894529342651367 1.247344613075256 0.000000000000000
7.291374206542969 -5.730742931365967 0.640363454818726 0.000000000000000
7.303032398223877 -0.730484306812286 0.549281537532806 0.000000000000000
7.303524494171143 -9.621688842773438 1.286679506301880 0.000000000000000
7.313511848449707 -2.040455818176270 0.480360686779022 0.000000000000000
7.315611362457275 -2.272117376327515 1.135277986526489 0.000000000000000
7.322108745574951 -1.810411334037781 1.289280772209167 0.000000000000000
7.322453498840332 -4.289532184600830 1.765166759490967 0.000000000000000
7.324775218963623 -2.273282051086426 0.729026317596436 0.000000000000000
7.329011440277100 -1.520967125892639 0.531291365623474 0.000000000000000
7.330492019653320 -9.533287048339844 1.143125414848328 0.000000000000000
7.330614089965820 -4.023710250854492 0.794888496398926 0.000000000000000
7.332741260528564 -3.212134361267090 1.065308332443237 0.000000000000000
7.334491252899170 -0.844219267368317 0.982468605041504 0.000000000000000
7.335937976837158 -7.536075115203857 0.807396769523621 0.000000000000000
7.340600013732910 -7.735918998718262 1.305641770362854 0.000000000000000
7.344309329986572 -10.854028701782227 1.107393026351929 0.000000000000000
7.349290370941162 -4.522374153137207 0.729168534278870 0.000000000000000
7.353703498840332 -12.250237464904785 2.117504596710205 0.000000000000000
7.360055923461914 -4.117779731750488 1.122293591499329 0.000000000000000
7.362813949584961 -2.857621431350708 0.591074705123901 0.000000000000000
7.363830089569092 -5.538572311401367 0.835316359996796 0.000000000000000
7.366333484649658 -10.426207542419434 1.449978828430176 0.000000000000000
7.366678237915039 -7.784053802490234 0.698688626289368 0.000000000000000
7.372544765472412 -8.651080131530762 0.762927651405334 0.000000000000000
7.372872829437256 -0.848637044429779 0.627118587493896 0.000000000000000
7.379918575286865 -2.267258167266846 0.699888885021210 0.000000000000000
7.381761074066162 -8.134668350219727 0.716123282909393 0.000000000000000
7.383014202117920 -9.987045288085938 1.049463748931885 0.000000000000000
7.389544010162354 -7.912124156951904 0.747549891471863 0.000000000000000
7.390129566192627 -3.762534618377686 0.620628416538239 0.000000000000000
7.400645732879639 -3.491317987442017 0.691447138786316 0.000000000000000
7.401817798614502 -9.574069976806641 1.481606960296631 0.000000000000000
7.403476715087891 -2.382983922958374 1.617730140686035 0.000000000000000
7.409465789794922 -4.077767848968506 1.125459432601929 0.000000000000000
7.411623477935791 -10.477889060974121 1.084490895271301 0.000000000000000
7.412760734558105 -3.398209810256958 0.739253163337708 0.000000000000000
7.414897441864014 -7.483022212982178 2.191185474395752 0.000000000000000
7.421557903289795 -11.219556808471680 1.136694550514221 0.000000000000000
7.423304557800293 -2.504565954208374 1.161079764366150 0.000000000000000
7.423914432525635 -7.943921089172363 0.708837211132050 0.000000000000000
7.424192905426025 -7.442874908447266 0.999288380146027 0.000000000000000
7.432692050933838 -5.935776710510254 0.730239450931549 0.000000000000000
7.434005260467529 -8.968943595886230 1.550210952758789 0.000000000000000
7.436497211456299 -8.274155616760254 0.832579433917999 0.000000000000000
7.449239253997803 -3.561247348785400 2.212385177612305 0.000000000000000
7.451929569244385 -10.431037902832031 1.162147879600525 0.000000000000000
7.458083152770996 -9.062191009521484 1.561818957328796 0.000000000000000
7.463870048522949 -1.169077754020691 0.565401732921600 0.000000000000000
7.465827941894531 -8.483827590942383 1.074234962463379 0.000000000000000
7.471845626831055 -9.031587600708008 1.248549342155457 0.000000000000000
7.472040176391602 -2.159801959991455 0.952253282070160 0.000000000000000
7.473060607910156 -3.705433607101440 0.335020214319229 0.000000000000000
7.474730014801025 -4.003548622131348 1.256663680076599 0.000000000000000
7.481805801391602 -3.315167665481567 0.929485142230988 0.000000000000000
7.484296321868896 -2.758431434631348 0.976557850837708 0.000000000000000
7.490209579467773 -4.224995136260986 0.461224049329758 0.000000000000000
7.493451118469238 -6.104109287261963 0.667366743087769 0.000000000000000
7.498004913330078 -4.225598335266113 0.478177100419998 0.000000000000000
7.507565498352051 -5.614741802215576 0.629254639148712 0.000000000000000
7.510298252105713 -5.602490901947021 0.890653669834137 0.000000000000000
7.513142585754395 -2.133371591567993 0.584507167339325 0.000000000000000
7.514766693115234 -1.140392661094666 0.480865776538849 0.000000000000000
7.515440940856934 -8.638824462890625 1.300556898117065 0.000000000000000
7.516646862030029 -4.345336914062500 0.315329909324646 0.000000000000000
7.517664432525635 -10.759500503540039 2.243604660034180 0.000000000000000
7.518707752227783 -6.309167861938477 0.753509104251862 0.000000000000000
7.528754711151123 -3.526405811309814 0.413880705833435 0.000000000000000
7.530039310455322 -9.500204086303711 0.954062700271606 0.000000000000000
7.531357288360596 -7.738717079162598 1.226523280143738 0.000000000000000
7.531402111053467 -3.333055734634399 0.680014789104462 0.000000000000000
7.531923770904541 -1.079463243484497 0.642948091030121 0.000000000000000
7.537516593933105 -3.830784797668457 0.649101674556732 0.000000000000000
7.546798229217529 -3.561233282089233 0.431493520736694 0.000000000000000
7.553141117095947 -3.986701250076294 1.136539936065674 0.000000000000000
7.555638313293457 -5.727978229522705 0.654691696166992 0.000000000000000
7.558082103729248 -1.272384405136108 1.019931077957153 0.000000000000000
7.559074878692627 -7.982885837554932 1.345987319946289 0.000000000000000
7.563514232635498 -10.509479522705078 2.213276624679565 0.000000000000000
7.563561439514160 -4.846032142639160 0.724320530891418 0.000000000000000
7.564318656921387 -1.898341655731201 1.333088040351868 0.000000000000000
7.564903259277344 -6.388765335083008 0.664615035057068 0.000000000000000
7.567068099975586 -5.705923557281494 0.764185488224030 0.000000000000000
7.568395137786865 -9.412849426269531 0.578043580055237 0.000000000000000
7.572190761566162 -7.360548496246338 1.199437618255615 0.000000000000000
7.575204372406006 -6.744993209838867 2.109728813171387 0.000000000000000
7.576456546783447 -7.107801437377930 0.697296619415283 0.000000000000000
7.577113151550293 -2.384402990341187 0.720112740993500 0.000000000000000
7.578014850616455 -2.194160461425781 0.896079719066620 0.000000000000000
7.583215713500977 -6.265805244445801 0.831218421459198 0.000000000000000
7.584283828735352 -9.432610511779785 1.289221525192261 0.000000000000000
7.586119174957275 -9.367744445800781 0.576896250247955 0.000000000000000
7.586528301239014 -4.468628406524658 0.692950844764709 0.000000000000000
7.586948871612549 -8.040945053100586 1.638412594795227 0.000000000000000
7.589067935943604 -4.556006908416748 1.513034701347351 0.000000000000000
7.589483737945557 -11.027092933654785 1.105270981788635 0.000000000000000
7.590200901031494 -7.813628196716309 1.093056559562683 0.000000000000000
7.592420578002930 -8.037466049194336 1.109430432319641 0.000000000000000
7.597074985504150 -5.728549957275391 1.080712676048279 0.000000000000000
7.597813129425049 -6.739017486572266 0.056721512228251 1.000000000000000
7.604265213012695 -3.716407537460327 0.453940480947495 0.000000000000000
7.604918003082275 -5.885809898376465 1.643782496452332 0.000000000000000
7.605865001678467 -5.729765892028809 0.639166235923767 0.000000000000000
7.610845565795898 -9.252746582031250 0.919764876365662 0.000000000000000
7.616304397583008 -2.139125585556030 0.576783239841461 0.000000000000000
7.616823196411133 -3.432088136672974 1.111740827560425 0.000000000000000
7.617303848266602 -10.138658523559570 1.552576303482056 0.000000000000000
7.617393016815186 -10.806749343872070 3.542715311050415 0.000000000000000
7.622519969940186 -4.173034667968750 0.415893077850342 0.000000000000000
7.622899532318115 -8.639790534973145 1.308682680130005 0.000000000000000
7.623172760009766 -8.013798713684082 1.109829783439636 0.000000000000000
7.629109859466553 -4.655732631683350 0.634377717971802 0.000000000000000
7.629114151000977 -3.731192588806152 0.439136117696762 0.000000000000000
7.629890441894531 -3.864504337310791 0.574070930480957 0.000000000000000
7.630726814270020 -2.197014570236206 0.972182989120483 0.000000000000000
7.635122776031494 -3.682910442352295 2.271395921707153 0.000000000000000
7.637754440307617 -3.838217258453369 0.524311602115631 0.000000000000000
7.640072345733643 -6.856971263885498 0.930657267570496 0.000000000000000
7.642653465270996 -2.382177591323853 0.413936406373978 0.000000000000000
7.649013996124268 -3.761128425598145 0.742729365825653 0.000000000000000
7.650903224945068 -6.784674644470215 1.360787630081177 0.000000000000000
7.653692722320557 -3.017647504806519 0.934450924396515 0.000000000000000
7.656962394714355 -2.319649696350098 1.185708761215210 0.000000000000000
7.657939434051514 -8.416557312011719 1.393138289451599 0.000000000000000
7.658680915832520 -4.249820709228516 1.165560245513916 0.000000000000000
7.660119533538818 -4.716592311859131 0.603805840015411 0.000000000000000
7.661088466644287 -2.377658605575562 0.600328922271729 0.000000000000000
7.661771297454834 -6.232771396636963 1.688263654708862 0.000000000000000
7.663657665252686 -1.063693046569824 0.735461115837097 0.000000000000000
7.663856506347656 -6.942338466644287 0.694082021713257 0.000000000000000
7.664662837982178 -5.301130771636963 0.992653965950012 0.000000000000000
7.680596828460693 -4.616063117980957 1.192469835281372 0.000000000000000
7.685413837432861 -4.922779560089111 0.559820830821991 0.000000000000000
7.686401367187500 -1.630710840225220 0.892468333244324 0.000000000000000
7.689198017120361 -6.862389564514160 0.671886026859283 0.000000000000000
7.692332267761230 -4.257262706756592 1.828703045845032 0.000000000000000
7.693330764770508 -7.629680156707764 1.326543688774109 0.000000000000000
7.700695991516113 -2.321897983551025 0.633008062839508 0.000000000000000
7.701344013214111 -9.250330924987793 0.924051344394684 0.000000000000000
7.701419830322266 -6.394295692443848 0.826484620571136 0.000000000000000
7.704174995422363 -9.312416076660156 0.578425943851471 0.000000000000000
7.709517002105713 -6.651860237121582 1.156552195549011 0.000000000000000
7.709913253784180 -9.435118675231934 1.621442556381226 0.000000000000000
7.711935520172119 -3.631920814514160 1.457096338272095 0.000000000000000
7.712862968444824 -11.127165794372559 1.657572031021118 0.000000000000000
7.718277454376221 -8.527613639831543 2.392383337020874 0.000000000000000
