# This PCD file was generated using the MATLAB® pcwrite function
# from Computer Vision Toolbox®.
# .PCD v.7 - Point Cloud Data file format
VERSION .7
FIELDS x y z intensity
SIZE 8 8 8 8
TYPE F F F F
COUNT 1 1 1 1
WIDTH 642
HEIGHT 1
VIEWPOINT 0 0 0 1 0 0 0
POINTS 642
DATA ascii
-10.484996795654297 -8.122449874877930 1.764961123466492 0.000000000000000
-10.479981422424316 -9.157743453979492 0.719637930393219 0.000000000000000
-10.475380897521973 -9.967208862304688 0.358434379100800 0.000000000000000
-10.472448348999023 -6.243821620941162 1.622497797012329 0.000000000000000
-10.471120834350586 -6.232631683349609 1.384070754051208 0.000000000000000
-10.468195915222168 -9.680766105651855 0.709822356700897 0.000000000000000
-10.464234352111816 -9.792944908142090 1.627840518951416 0.000000000000000
-10.462103843688965 -9.404923439025879 1.872072219848633 0.000000000000000
-10.441890716552734 -10.012714385986328 1.194469332695007 0.000000000000000
-10.431155204772949 -8.554231643676758 0.515881001949310 0.000000000000000
-10.427950859069824 -9.129622459411621 0.583318114280701 0.000000000000000
-10.426528930664062 -10.630881309509277 1.056918621063232 0.000000000000000
-10.423044204711914 -9.049122810363770 0.953105449676514 0.000000000000000
-10.422598838806152 -6.185046195983887 1.796155333518982 0.000000000000000
-10.417212486267090 -6.062476158142090 0.809003412723541 0.000000000000000
-10.413139343261719 -6.043814182281494 0.021013753488660 0.000000000000000
-10.412782669067383 -6.068172931671143 0.044172789901495 0.000000000000000
-10.410695075988770 -9.967468261718750 1.917977094650269 0.000000000000000
-10.409811019897461 -6.169104576110840 2.068375825881958 0.000000000000000
-10.402934074401855 -10.161728858947754 0.528163075447083 0.000000000000000
-10.384181976318359 -10.345109939575195 0.729710876941681 0.000000000000000
-10.379675865173340 -10.068447113037109 0.747729361057281 0.000000000000000
-10.379373550415039 -7.380052089691162 0.095581717789173 0.000000000000000
-10.378976821899414 -9.133571624755859 0.714887142181396 0.000000000000000
-10.363027572631836 -9.402554512023926 1.047217130661011 0.000000000000000
-10.354681968688965 -10.807578086853027 0.371023207902908 0.000000000000000
-10.351942062377930 -7.676264286041260 0.468058764934540 0.000000000000000
-10.348605155944824 -10.635019302368164 0.168350875377655 0.000000000000000
-10.343734741210938 -9.125008583068848 1.032291054725647 0.000000000000000
-10.343188285827637 -9.363512039184570 0.748284101486206 0.000000000000000
-10.330878257751465 -8.241720199584961 0.657913208007812 0.000000000000000
-10.320764541625977 -9.169006347656250 1.033186674118042 0.000000000000000
-10.317067146301270 -9.703972816467285 0.351099163293839 0.000000000000000
-10.306800842285156 -9.550221443176270 0.834796547889709 0.000000000000000
-10.306585311889648 -9.417145729064941 1.044829010963440 0.000000000000000
-10.306167602539062 -9.135457992553711 0.738644003868103 0.000000000000000
-10.299275398254395 -8.687554359436035 0.696710288524628 0.000000000000000
-10.290317535400391 -10.269504547119141 0.723744332790375 0.000000000000000
-10.272011756896973 -8.014986991882324 0.899649977684021 0.000000000000000
-10.271062850952148 -7.729689598083496 1.710613965988159 0.000000000000000
-10.266011238098145 -9.624927520751953 0.321803003549576 0.000000000000000
-10.256645202636719 -6.310917377471924 0.645885050296783 0.000000000000000
-10.223160743713379 -8.938360214233398 0.937674999237061 0.000000000000000
-10.223149299621582 -6.347517013549805 0.668560385704041 0.000000000000000
-10.210509300231934 -7.975033283233643 0.047486115247011 0.000000000000000
-10.208361625671387 -7.569795608520508 1.049316167831421 0.000000000000000
-10.201187133789062 -9.234960556030273 0.314670145511627 0.000000000000000
-10.199200630187988 -7.073328971862793 0.045492257922888 0.000000000000000
-10.187409400939941 -10.598865509033203 1.015102744102478 0.000000000000000
-10.187224388122559 -7.076087474822998 0.093090102076530 0.000000000000000
-10.067460060119629 -10.561532974243164 0.614098727703094 0.000000000000000
-10.037010192871094 -8.224564552307129 0.446340799331665 0.000000000000000
-10.022089004516602 -9.396237373352051 0.525357961654663 0.000000000000000
-10.019721984863281 -10.418581008911133 1.193481922149658 0.000000000000000
-10.017362594604492 -8.770153999328613 0.765350222587585 0.000000000000000
-10.015817642211914 -8.176856994628906 1.229049086570740 0.000000000000000
-10.012682914733887 -7.812638759613037 1.690035820007324 0.000000000000000
-10.007740020751953 -8.501606941223145 0.476914703845978 0.000000000000000
-10.002887725830078 -9.626666069030762 1.576829433441162 0.000000000000000
-9.996860504150391 2.509554386138916 1.261893630027771 1.000000000000000
-9.974619865417480 -9.507336616516113 1.200728416442871 0.000000000000000
-9.964325904846191 -6.512527942657471 0.066484130918980 1.000000000000000
-9.956078529357910 -6.440627574920654 3.177262783050537 0.000000000000000
-9.953220367431641 -8.054780006408691 0.637427985668182 0.000000000000000
-9.937533378601074 -8.201196670532227 0.839987695217133 0.000000000000000
-9.935444831848145 3.864080905914307 1.305155754089355 1.000000000000000
-9.919496536254883 -7.460773468017578 0.833112716674805 0.000000000000000
-9.912014961242676 -7.957510948181152 0.657258272171021 0.000000000000000
-9.896013259887695 -8.652327537536621 0.705010831356049 0.000000000000000
-9.889447212219238 -9.990762710571289 1.596692204475403 0.000000000000000
-9.871169090270996 -9.920221328735352 0.696695923805237 0.000000000000000
-9.863785743713379 -7.687599658966064 0.237938955426216 0.000000000000000
-9.861735343933105 -8.323194503784180 0.295100420713425 0.000000000000000
-9.838339805603027 -7.507840156555176 0.069120265543461 0.000000000000000
-9.824346542358398 -6.554749011993408 0.202025279402733 0.000000000000000
-9.799651145935059 -6.088363170623779 0.663196384906769 0.000000000000000
-9.793319702148438 -9.424980163574219 1.095964789390564 0.000000000000000
-9.792053222656250 -9.995129585266113 1.155301094055176 0.000000000000000
-9.791526794433594 -6.405931949615479 1.557070255279541 0.000000000000000
-9.782527923583984 -7.593032360076904 1.516119480133057 0.000000000000000
-9.781177520751953 -8.136075019836426 0.486533105373383 0.000000000000000
-9.777408599853516 -7.422533988952637 0.092129491269588 0.000000000000000
-9.774521827697754 -8.426432609558105 0.891108155250549 0.000000000000000
-9.774284362792969 -6.156149864196777 0.619535565376282 0.000000000000000
-9.773701667785645 3.105659961700439 1.752963542938232 0.000000000000000
-9.763965606689453 -7.914608001708984 0.940644681453705 0.000000000000000
-9.763687133789062 -9.684263229370117 1.198297739028931 0.000000000000000
-9.754164695739746 -7.622985839843750 1.515633344650269 0.000000000000000
-9.748097419738770 -6.377519130706787 0.266385942697525 0.000000000000000
-9.717561721801758 -7.920367717742920 0.624102711677551 0.000000000000000
-9.713798522949219 -8.140450477600098 0.679732441902161 0.000000000000000
-9.701927185058594 -5.950242042541504 0.720035910606384 0.000000000000000
-9.690487861633301 -8.058922767639160 0.845971107482910 0.000000000000000
-9.689463615417480 -8.003869056701660 0.843560159206390 0.000000000000000
-9.684029579162598 -9.531098365783691 1.148145675659180 0.000000000000000
-9.681535720825195 -7.403165817260742 0.091469064354897 0.000000000000000
-9.671603202819824 -6.802616596221924 0.748069584369659 0.000000000000000
-9.658276557922363 -9.311918258666992 1.133663415908813 0.000000000000000
-9.656868934631348 -7.697394847869873 0.258680760860443 0.000000000000000
-9.656378746032715 -7.480541706085205 0.843439102172852 0.000000000000000
-9.653277397155762 -7.693427562713623 1.043064594268799 0.000000000000000
-9.649402618408203 -5.964478015899658 0.019799005240202 0.000000000000000
-9.648379325866699 -9.898811340332031 0.954483211040497 0.000000000000000
-9.645501136779785 -10.189856529235840 0.374766319990158 0.000000000000000
-9.637573242187500 -8.533205032348633 0.442765682935715 0.000000000000000
-9.626863479614258 -9.295902252197266 1.104941725730896 0.000000000000000
-9.620476722717285 -5.919483184814453 0.431964367628098 0.000000000000000
-9.617494583129883 -8.468232154846191 1.082806825637817 0.000000000000000
-9.612020492553711 5.878493785858154 0.539226889610291 0.000000000000000
-9.610650062561035 -8.461606979370117 0.834783315658569 0.000000000000000
-9.598214149475098 -9.265007019042969 1.633267521858215 0.000000000000000
-9.592036247253418 5.873630046844482 1.128599882125854 1.000000000000000
-9.590381622314453 5.854452610015869 1.375638961791992 1.000000000000000
-9.584675788879395 5.870737075805664 1.276631355285645 1.000000000000000
-9.584446907043457 -6.769104003906250 2.005697727203369 0.000000000000000
-9.571309089660645 5.470011234283447 1.884385466575623 1.000000000000000
-9.567762374877930 -7.397742271423340 0.578808426856995 0.000000000000000
-9.558333396911621 -9.723918914794922 0.678796172142029 0.000000000000000
-9.553384780883789 -8.648515701293945 0.492800116539001 0.000000000000000
-9.550894737243652 5.838588237762451 0.557277143001556 1.000000000000000
-9.549016952514648 -8.348939895629883 1.687925338745117 0.000000000000000
-9.545996665954590 -9.378206253051758 1.519949793815613 0.000000000000000
-9.539348602294922 -9.116635322570801 1.498732805252075 0.000000000000000
-9.535716056823730 -8.379986763000488 0.974571049213409 0.000000000000000
-9.526950836181641 1.053130745887756 1.638390898704529 1.000000000000000
-9.523622512817383 -6.573832511901855 1.008361816406250 0.000000000000000
-9.511468887329102 -8.666311264038086 0.467332869768143 0.000000000000000
-9.507659912109375 -8.487105369567871 0.291442513465881 0.000000000000000
-9.504512786865234 -8.664827346801758 0.888077139854431 0.000000000000000
-9.502038955688477 -7.203033447265625 0.823324382305145 0.000000000000000
-9.499312400817871 -10.996524810791016 1.087517738342285 0.000000000000000
-9.496572494506836 -7.245456218719482 0.410864531993866 0.000000000000000
-9.494254112243652 -8.475139617919922 0.486685961484909 0.000000000000000
-9.474927902221680 5.503030776977539 1.872928023338318 1.000000000000000
-9.472255706787109 -7.386703968048096 0.621111154556274 0.000000000000000
-9.469820022583008 -8.512908935546875 0.682945787906647 0.000000000000000
-9.469608306884766 -8.628170967102051 0.662422180175781 0.000000000000000
-9.464656829833984 -11.270745277404785 1.399003744125366 0.000000000000000
-9.461735725402832 -6.296364307403564 0.653325378894806 0.000000000000000
-9.454878807067871 -9.176507949829102 1.753352880477905 0.000000000000000
-9.454566955566406 -9.694545745849609 0.908923327922821 0.000000000000000
-9.437668800354004 -9.210478782653809 1.497829914093018 0.000000000000000
-9.426639556884766 -8.361127853393555 0.627284824848175 0.000000000000000
-9.417639732360840 -8.020142555236816 1.021338820457458 0.000000000000000
-9.412791252136230 -9.222839355468750 1.148296356201172 0.000000000000000
-9.403367996215820 -9.190470695495605 0.907916307449341 0.000000000000000
-9.386921882629395 -7.329119205474854 0.592877686023712 0.000000000000000
-9.385655403137207 -11.097778320312500 1.381591916084290 0.000000000000000
-9.385158538818359 -9.308814048767090 0.938256084918976 0.000000000000000
-9.382161140441895 -7.123514175415039 1.442233562469482 0.000000000000000
-9.378891944885254 -9.637119293212891 1.646391987800598 0.000000000000000
-9.374099731445312 -8.137870788574219 0.809281826019287 0.000000000000000
-9.336284637451172 -7.773731708526611 0.604810774326324 0.000000000000000
-9.330949783325195 2.364904880523682 2.002205848693848 1.000000000000000
-9.320006370544434 2.090441703796387 1.986729145050049 1.000000000000000
-9.310418128967285 -7.793555259704590 0.231014624238014 0.000000000000000
-9.307168006896973 -9.704750061035156 1.006319522857666 0.000000000000000
-9.304368972778320 -7.356590270996094 0.590491056442261 0.000000000000000
-9.304169654846191 -9.334095954895020 1.496927142143250 0.000000000000000
-9.302851676940918 -7.154854774475098 0.810373902320862 0.000000000000000
-9.294012069702148 -7.567594051361084 1.012752771377563 0.000000000000000
-9.290350914001465 -7.510838508605957 1.589784026145935 0.000000000000000
-9.284865379333496 -7.681657314300537 1.092447876930237 0.000000000000000
-9.257927894592285 -7.538212776184082 1.588728785514832 0.000000000000000
-9.240368843078613 -9.348731040954590 0.907640755176544 0.000000000000000
-9.234106063842773 -10.689517974853516 2.938143253326416 0.000000000000000
-9.198538780212402 -8.180921554565430 1.235229730606079 0.000000000000000
-9.190642356872559 -5.479590892791748 0.409189164638519 0.000000000000000
-9.187929153442383 -8.719631195068359 1.021378755569458 0.000000000000000
-9.186531066894531 -8.258245468139648 0.282480686903000 0.000000000000000
-9.182126045227051 5.933590888977051 0.502176821231842 1.000000000000000
-9.176979064941406 -5.499054431915283 0.183006316423416 0.000000000000000
-9.169249534606934 -5.686059474945068 0.246724799275398 0.000000000000000
-9.167430877685547 -5.395289897918701 0.631968736648560 0.000000000000000
-9.166200637817383 -8.255602836608887 1.510286331176758 0.000000000000000
-9.165726661682129 -7.463138580322266 0.816160261631012 0.000000000000000
-9.152032852172852 -8.300887107849121 1.512716889381409 0.000000000000000
-9.147474288940430 -8.425098419189453 0.308277368545532 0.000000000000000
-9.145984649658203 -5.638094902038574 0.286975532770157 0.000000000000000
-9.138583183288574 -10.872427940368652 0.379358798265457 0.000000000000000
-9.131435394287109 -7.447949409484863 1.068251490592957 0.000000000000000
-9.126123428344727 -7.935457706451416 1.480634808540344 0.000000000000000
-9.125791549682617 -5.388810634613037 0.201643183827400 0.000000000000000
-9.122630119323730 -7.104588985443115 0.553376734256744 0.000000000000000
-9.114065170288086 6.537304878234863 0.515208482742310 1.000000000000000
-9.112741470336914 -8.664003372192383 0.868238031864166 0.000000000000000
-9.111725807189941 -5.388231754302979 0.221738353371620 0.000000000000000
-9.103887557983398 -8.960118293762207 0.882015228271484 0.000000000000000
-9.102397918701172 -8.787628173828125 1.146979928016663 0.000000000000000
-9.101981163024902 -10.456619262695312 1.256766557693481 0.000000000000000
-9.096631050109863 -9.808350563049316 1.165657877922058 0.000000000000000
-9.083634376525879 -5.371620178222656 0.383273929357529 0.000000000000000
-9.075100898742676 -8.044231414794922 0.837377130985260 0.000000000000000
-9.072278976440430 -7.452582836151123 0.856012642383575 0.000000000000000
-9.069830894470215 -10.867423057556152 0.378077179193497 0.000000000000000
-9.041886329650879 6.630025863647461 0.515024960041046 1.000000000000000
-9.037414550781250 -7.696344375610352 1.128363132476807 0.000000000000000
-9.032009124755859 -7.940958023071289 0.784040570259094 0.000000000000000
-9.024880409240723 -8.227568626403809 1.625136017799377 0.000000000000000
-9.020963668823242 -7.772409915924072 0.983157932758331 0.000000000000000
-9.019991874694824 -8.646237373352051 1.529729962348938 0.000000000000000
-9.012027740478516 -9.049227714538574 0.857222080230713 0.000000000000000
-9.005196571350098 -11.016318321228027 2.108708620071411 0.000000000000000
-9.004242897033691 -7.385120868682861 0.243937313556671 0.000000000000000
-8.989806175231934 -10.400835037231445 1.002317190170288 0.000000000000000
-8.988900184631348 -7.477051258087158 0.807342827320099 0.000000000000000
-8.971733093261719 -8.470512390136719 0.851980984210968 0.000000000000000
-8.967590332031250 -7.559978008270264 0.403439283370972 0.000000000000000
-8.956688880920410 -7.364442348480225 0.867805123329163 0.000000000000000
-8.953845977783203 -6.886433601379395 0.605825185775757 0.000000000000000
-8.934119224548340 -5.095726490020752 2.755905389785767 0.000000000000000
-8.931255340576172 -6.066029071807861 0.579047203063965 0.000000000000000
-8.919294357299805 -6.946234226226807 0.889726221561432 0.000000000000000
-8.916547775268555 -9.142869949340820 0.660356581211090 0.000000000000000
-8.901175498962402 -7.989936828613281 0.595463156700134 0.000000000000000
-8.897017478942871 -5.262518405914307 1.375561594963074 0.000000000000000
-8.888731002807617 -8.388628959655762 0.796791255474091 0.000000000000000
-8.886883735656738 -8.211500167846680 0.067578800022602 0.000000000000000
-8.883671760559082 -10.211576461791992 1.286583781242371 0.000000000000000
-8.878977775573730 -8.324510574340820 0.840408146381378 0.000000000000000
-8.859289169311523 -8.243516921997070 0.253487080335617 0.000000000000000
-8.855321884155273 -7.321074485778809 0.571994662284851 0.000000000000000
-8.843324661254883 -8.578162193298340 0.826951444149017 0.000000000000000
-8.823899269104004 -8.145883560180664 0.968332648277283 0.000000000000000
-8.820254325866699 -5.201959133148193 0.017872164025903 0.000000000000000
-8.817365646362305 -5.569372653961182 0.991339564323425 0.000000000000000
-8.809227943420410 -9.515100479125977 1.129893064498901 0.000000000000000
-8.804821014404297 -8.481363296508789 0.256083935499191 0.000000000000000
-8.791204452514648 -8.487196922302246 0.890916347503662 0.000000000000000
-8.775655746459961 -8.648538589477539 0.518561065196991 0.000000000000000
-8.772853851318359 -11.049556732177734 0.811032474040985 0.000000000000000
-8.770339012145996 -8.103813171386719 0.801502645015717 0.000000000000000
-8.770312309265137 -6.423130035400391 1.330918550491333 0.000000000000000
-8.770149230957031 -6.891024112701416 0.233633637428284 0.000000000000000
-8.768380165100098 -8.045446395874023 0.432199448347092 0.000000000000000
-8.759422302246094 -8.161436080932617 0.296778917312622 0.000000000000000
-8.753456115722656 -8.373174667358398 0.253738373517990 0.000000000000000
-8.727555274963379 -5.436865806579590 0.175891295075417 0.000000000000000
-8.707365989685059 -8.743308067321777 0.638048648834229 0.000000000000000
-8.704927444458008 -7.356754302978516 1.033220887184143 0.000000000000000
-8.698293685913086 -5.837962150573730 2.178966999053955 0.000000000000000
-8.686734199523926 -10.259732246398926 0.746888220310211 0.000000000000000
-8.682464599609375 -7.750487327575684 0.983451247215271 0.000000000000000
-8.679670333862305 -8.483158111572266 1.025551080703735 0.000000000000000
-8.668614387512207 -7.803613185882568 0.087536521255970 0.000000000000000
-8.655931472778320 -5.040705204010010 0.383051186800003 1.000000000000000
-8.650360107421875 -4.834128856658936 0.359900027513504 0.000000000000000
-8.640160560607910 -9.318121910095215 0.339415043592453 0.000000000000000
-8.627851486206055 -8.671331405639648 1.033634305000305 0.000000000000000
-8.623215675354004 -5.126405715942383 0.634672105312347 0.000000000000000
-8.621505737304688 -7.803259849548340 0.601281881332397 0.000000000000000
-8.617264747619629 -5.691106796264648 0.593639969825745 0.000000000000000
-8.611369132995605 -7.920777797698975 0.966042339801788 0.000000000000000
-8.610939979553223 -7.570753097534180 0.570801377296448 0.000000000000000
-8.607802391052246 -8.471867561340332 1.607196211814880 0.000000000000000
-8.604001998901367 -5.221448421478271 0.268819302320480 0.000000000000000
-8.601799964904785 2.212087154388428 1.087386727333069 1.000000000000000
-8.594025611877441 2.242099523544312 1.087386727333069 1.000000000000000
-8.593240737915039 -10.151465415954590 0.559770047664642 0.000000000000000
-8.574949264526367 -7.032021522521973 0.765735745429993 0.000000000000000
-8.570351600646973 -8.731613159179688 0.844816803932190 0.000000000000000
-8.567824363708496 -8.028290748596191 0.245947793126106 0.000000000000000
-8.559041976928711 -7.908574104309082 0.244104847311974 0.000000000000000
-8.556406021118164 -8.599526405334473 0.837652683258057 0.000000000000000
-8.549712181091309 3.447712421417236 1.917490839958191 1.000000000000000
-8.540316581726074 -8.475573539733887 0.691661715507507 0.000000000000000
-8.529071807861328 -8.151126861572266 0.951293587684631 0.000000000000000
-8.513654708862305 2.479569196701050 1.515730500221252 1.000000000000000
-8.512414932250977 -5.756407260894775 2.137423992156982 0.000000000000000
-8.501685142517090 -7.134267330169678 1.006135463714600 0.000000000000000
-8.501642227172852 -9.707244873046875 2.683998346328735 0.000000000000000
-8.500860214233398 -8.782629013061523 0.843990206718445 0.000000000000000
-8.483817100524902 4.054208755493164 1.955775499343872 1.000000000000000
-8.482835769653320 -9.087820053100586 2.124988079071045 0.000000000000000
-8.469689369201660 -7.199100494384766 0.425085932016373 0.000000000000000
-8.463102340698242 -10.134691238403320 0.733574688434601 0.000000000000000
-8.455185890197754 -7.284938812255859 1.366403222084045 0.000000000000000
-8.444824218750000 2.496981859207153 1.078150987625122 1.000000000000000
-8.441802978515625 -8.425313949584961 0.639672577381134 0.000000000000000
-8.440845489501953 2.082333326339722 1.486076474189758 1.000000000000000
-8.439095497131348 -8.593083381652832 0.437425911426544 0.000000000000000
-8.435541152954102 3.067285060882568 1.866987705230713 1.000000000000000
-8.412564277648926 -9.947175979614258 0.974974751472473 0.000000000000000
-8.410933494567871 -11.057732582092285 0.798636257648468 0.000000000000000
-8.408919334411621 -7.110617637634277 2.290562629699707 0.000000000000000
-8.404042243957520 -8.152050971984863 0.425230801105499 0.000000000000000
-8.379057884216309 -8.032982826232910 1.984131097793579 0.000000000000000
-8.342864036560059 -9.720734596252441 0.933964252471924 0.000000000000000
-8.341976165771484 -7.444972515106201 0.578147649765015 0.000000000000000
-8.311674118041992 2.143045425415039 1.467205524444580 1.000000000000000
-8.308854103088379 -8.847412109375000 1.153723835945129 0.000000000000000
-8.298697471618652 -7.766329288482666 0.565829217433929 0.000000000000000
-8.293540954589844 -6.294228553771973 0.098129339516163 0.000000000000000
-8.290255546569824 -8.227407455444336 0.311967074871063 0.000000000000000
-8.283205032348633 -6.810684204101562 1.019349813461304 0.000000000000000
-8.282687187194824 -11.650133132934570 0.217067331075668 0.000000000000000
-8.280959129333496 -5.695816040039062 0.326391875743866 0.000000000000000
-8.280380249023438 -5.458661556243896 0.531917929649353 1.000000000000000
-8.273729324340820 2.255367279052734 1.465857744216919 1.000000000000000
-8.273292541503906 -7.698249816894531 0.584344327449799 0.000000000000000
-8.260518074035645 -9.892093658447266 0.914750099182129 0.000000000000000
-8.252035140991211 -7.801379203796387 0.303316146135330 0.000000000000000
-8.242761611938477 -9.078394889831543 2.096008062362671 0.000000000000000
-8.228160858154297 7.301706790924072 0.929563581943512 1.000000000000000
-8.220650672912598 -6.511403560638428 0.522074460983276 0.000000000000000
-8.214915275573730 -4.716540813446045 0.253012686967850 0.000000000000000
-8.210598945617676 -6.733230113983154 1.413024187088013 0.000000000000000
-8.208664894104004 -7.441594600677490 0.083153694868088 0.000000000000000
-8.204226493835449 -7.274329662322998 0.714822232723236 0.000000000000000
-8.193738937377930 -7.735982418060303 1.499557375907898 0.000000000000000
-8.183013916015625 -4.972610950469971 1.419097542762756 0.000000000000000
-8.179836273193359 -6.566892623901367 0.219727873802185 0.000000000000000
-8.178217887878418 -0.209583699703217 1.701630473136902 1.000000000000000
-8.171290397644043 -6.409641265869141 1.106196880340576 0.000000000000000
-8.171070098876953 -0.180861651897430 1.700001478195190 1.000000000000000
-8.169271469116211 -8.934585571289062 1.097503781318665 0.000000000000000
-8.166931152343750 -10.354499816894531 0.732687115669250 0.000000000000000
-8.160275459289551 -6.052404880523682 0.701534092426300 0.000000000000000
-8.154690742492676 2.344173431396484 1.450356721878052 1.000000000000000
-8.128026962280273 -6.157891273498535 0.370352953672409 0.000000000000000
-8.121131896972656 -5.585883617401123 0.471727877855301 0.000000000000000
-8.121128082275391 -10.302341461181641 0.754101812839508 0.000000000000000
-8.115503311157227 -5.431627273559570 0.223314285278320 0.000000000000000
-8.113416671752930 -11.244980812072754 0.210568681359291 0.000000000000000
-8.106909751892090 -6.472127437591553 1.773182272911072 0.000000000000000
-8.093209266662598 -9.039688110351562 0.510655641555786 0.000000000000000
-8.088419914245605 -7.121877670288086 1.434129834175110 0.000000000000000
-8.088307380676270 -8.665154457092285 0.498881608247757 0.000000000000000
-8.086677551269531 -9.777198791503906 0.314522206783295 0.000000000000000
-8.077688217163086 -10.173984527587891 1.177676916122437 0.000000000000000
-8.074159622192383 -6.862906932830811 0.568336009979248 0.000000000000000
-8.072628021240234 -12.233029365539551 0.673240005970001 0.000000000000000
-8.055315017700195 -7.924784183502197 0.736680626869202 0.000000000000000
-8.047231674194336 -5.294492721557617 0.776723682880402 0.000000000000000
-8.036971092224121 -6.267433166503906 0.056922573596239 0.000000000000000
-8.028942108154297 -6.491972446441650 0.374998688697815 0.000000000000000
-8.021821022033691 -6.212949275970459 0.524649918079376 0.000000000000000
-8.019667625427246 -10.769406318664551 0.126554042100906 0.000000000000000
-8.019509315490723 -9.343975067138672 1.116283059120178 0.000000000000000
-8.012173652648926 -11.447251319885254 0.453754782676697 0.000000000000000
-7.998970985412598 -6.993697166442871 0.242975443601608 0.000000000000000
-7.992862701416016 -7.556360244750977 0.124788381159306 1.000000000000000
-7.991749286651611 -6.902677536010742 0.871906697750092 0.000000000000000
-7.987712860107422 -4.587205886840820 0.122189022600651 0.000000000000000
-7.984324455261230 -11.313893318176270 3.710429906845093 0.000000000000000
-7.977119922637939 -10.411782264709473 0.552032828330994 0.000000000000000
-7.970392227172852 -10.554824829101562 0.760299921035767 0.000000000000000
-7.953125000000000 -7.301496505737305 0.579047203063965 0.000000000000000
-7.951435089111328 -11.351186752319336 3.713535785675049 0.000000000000000
-7.949933052062988 -6.709654808044434 0.879043817520142 0.000000000000000
-7.949763298034668 -6.766736507415771 0.078350588679314 0.000000000000000
-7.949448108673096 -7.557993888854980 0.926869153976440 0.000000000000000
-7.942243576049805 -12.235124588012695 1.148013591766357 0.000000000000000
-7.937794208526611 -6.017255306243896 0.380911231040955 0.000000000000000
-7.928589820861816 -11.914535522460938 1.360394835472107 0.000000000000000
-7.926462173461914 -6.737366199493408 0.879043817520142 0.000000000000000
-7.926056385040283 -11.129174232482910 0.155009850859642 0.000000000000000
-7.917029380798340 -10.438245773315430 0.626994609832764 0.000000000000000
-7.911469459533691 -8.844766616821289 0.888104677200317 0.000000000000000
-7.908496379852295 -7.117344856262207 0.591120064258575 0.000000000000000
-7.903786659240723 -7.553549289703369 0.712740480899811 0.000000000000000
-7.893503189086914 -12.302952766418457 0.812124431133270 0.000000000000000
-7.891283512115479 -6.200467109680176 0.056051306426525 0.000000000000000
-7.877318382263184 -8.736988067626953 0.314209908246994 0.000000000000000
-7.875956535339355 -3.761532783508301 2.338688850402832 0.000000000000000
-7.871154785156250 -7.226242542266846 0.244347169995308 0.000000000000000
-7.862339973449707 -10.040201187133789 0.708500862121582 0.000000000000000
-7.853865623474121 -10.660902976989746 0.837726771831512 0.000000000000000
-7.847131729125977 -3.714184045791626 2.326265811920166 0.000000000000000
-7.845055580139160 7.731413841247559 0.909429311752319 1.000000000000000
-7.844388484954834 -7.568892002105713 0.773714303970337 0.000000000000000
-7.835497379302979 -7.495095729827881 1.327515959739685 0.000000000000000
-7.831542015075684 -7.978901863098145 0.944719433784485 0.000000000000000
-7.830861091613770 -7.337735176086426 0.886059939861298 0.000000000000000
-7.822139739990234 -10.352486610412598 0.920980572700500 0.000000000000000
-7.820768356323242 -10.681422233581543 0.201033264398575 0.000000000000000
-7.818986415863037 -10.654392242431641 0.734240412712097 1.000000000000000
-7.809306144714355 -4.858220577239990 0.801411509513855 0.000000000000000
-7.808788776397705 -10.822774887084961 0.407750248908997 0.000000000000000
-7.805943489074707 -6.000107288360596 0.357577145099640 0.000000000000000
-7.804718971252441 -6.916698455810547 0.699975430965424 0.000000000000000
-7.796521186828613 -11.060881614685059 0.647645831108093 0.000000000000000
-7.795631885528564 -10.174901962280273 0.934545934200287 0.000000000000000
-7.794684886932373 -6.965826988220215 0.741995394229889 0.000000000000000
-7.780056476593018 -10.560712814331055 0.425971239805222 0.000000000000000
-7.775736331939697 -7.496888637542725 0.246999144554138 0.000000000000000
-7.775557518005371 -7.706383705139160 1.456818342208862 0.000000000000000
-7.765773773193359 2.111659288406372 1.673935294151306 1.000000000000000
-7.762687206268311 -7.853720664978027 1.469481706619263 0.000000000000000
-7.759136199951172 7.789530277252197 0.907783567905426 0.000000000000000
-7.736038208007812 -7.504076957702637 0.225759297609329 0.000000000000000
-7.727032661437988 -10.769952774047852 0.150381341576576 0.000000000000000
-7.720790386199951 -10.940462112426758 0.203341186046600 0.000000000000000
-7.718073844909668 -7.185644626617432 0.241146504878998 0.000000000000000
-7.714639186859131 -11.779778480529785 0.646809637546539 0.000000000000000
-7.708270549774170 -5.241684436798096 0.517895758152008 0.000000000000000
-7.696713447570801 -11.223111152648926 2.830620527267456 0.000000000000000
-7.694504737854004 -6.319436550140381 0.246820136904716 0.000000000000000
-7.689085006713867 -10.286073684692383 0.812471270561218 0.000000000000000
-7.683253765106201 -12.070515632629395 0.822510421276093 0.000000000000000
-7.680827140808105 -11.625617980957031 2.898229598999023 0.000000000000000
-7.676162719726562 -5.688772678375244 0.328636646270752 0.000000000000000
-7.674474239349365 -7.606199741363525 0.247090578079224 0.000000000000000
-7.670016765594482 -6.195998668670654 0.795048654079437 0.000000000000000
-7.667886257171631 -7.341432094573975 0.079671442508698 0.000000000000000
-7.667183876037598 -6.693696975708008 0.350087374448776 0.000000000000000
-7.665860652923584 -6.655379295349121 0.857825517654419 0.000000000000000
-7.661761760711670 -10.175256729125977 0.413637399673462 0.000000000000000
-7.658569812774658 -6.787178039550781 0.371659576892853 0.000000000000000
-7.655914306640625 -4.419785976409912 0.593358457088470 0.000000000000000
-7.655397891998291 -10.659898757934570 0.325326770544052 0.000000000000000
-7.654298305511475 -12.600007057189941 0.393777012825012 0.000000000000000
-7.650332927703857 -4.734539985656738 0.447890132665634 0.000000000000000
-7.649662017822266 -7.634720802307129 0.081112377345562 0.000000000000000
-7.649541854858398 -8.202556610107422 2.332920074462891 0.000000000000000
-7.643899440765381 -10.606721878051758 0.223643958568573 0.000000000000000
-7.643850803375244 -7.112557888031006 0.379208922386169 0.000000000000000
-7.640664577484131 -10.916463851928711 0.637702703475952 0.000000000000000
-7.640549182891846 -12.600656509399414 3.948543548583984 0.000000000000000
-7.638487815856934 -9.824802398681641 0.691415250301361 0.000000000000000
-7.634118080139160 -5.829128742218018 0.663233518600464 0.000000000000000
-7.627504825592041 -10.429682731628418 0.419609576463699 0.000000000000000
-7.624094009399414 -8.054368019104004 1.005413174629211 0.000000000000000
-7.621832847595215 -12.818276405334473 0.570296883583069 0.000000000000000
-7.615474700927734 -11.778945922851562 0.779284417629242 0.000000000000000
-7.612554073333740 -7.332895755767822 0.546544730663300 0.000000000000000
-7.607807159423828 -6.984471797943115 0.077510043978691 0.000000000000000
-7.603867530822754 -6.169806480407715 0.393291562795639 0.000000000000000
-7.599087715148926 -11.858639717102051 1.338819384574890 0.000000000000000
-7.584918022155762 -9.909189224243164 0.165536135435104 0.000000000000000
-7.583558082580566 -10.433661460876465 0.195870772004128 0.000000000000000
-7.583126544952393 -7.779952526092529 1.445737957954407 0.000000000000000
-7.582468032836914 -7.202537536621094 0.540761172771454 0.000000000000000
-7.579428672790527 -5.421136856079102 0.499784380197525 0.000000000000000
-7.573894977569580 -7.990711688995361 0.760224878787994 0.000000000000000
-7.570995807647705 -6.292708873748779 1.118181109428406 0.000000000000000
-7.570076465606689 -6.949832916259766 0.392986685037613 0.000000000000000
-7.561320304870605 -10.714490890502930 0.400665342807770 0.000000000000000
-7.553694248199463 -4.692986965179443 0.237526461482048 0.000000000000000
-7.553074836730957 -7.591138839721680 0.574334323406219 0.000000000000000
-7.543232440948486 -6.686373233795166 0.851763069629669 0.000000000000000
-7.542718887329102 3.999059677124023 1.775756120681763 1.000000000000000
-7.538814067840576 -7.471746444702148 0.896894097328186 0.000000000000000
-7.528743267059326 -7.158005714416504 0.397266596555710 0.000000000000000
-7.527646541595459 -8.356777191162109 2.339436769485474 0.000000000000000
-7.525595188140869 -12.859958648681641 0.340732604265213 0.000000000000000
-7.523694038391113 -4.635126590728760 0.354925602674484 0.000000000000000
-7.522621154785156 -12.720569610595703 0.934960663318634 0.000000000000000
-7.521784305572510 -6.811254501342773 0.505169153213501 0.000000000000000
-7.521698951721191 -12.671009063720703 0.138881474733353 0.000000000000000
-7.518726825714111 -7.504041194915771 0.733497202396393 0.000000000000000
-7.514627456665039 -6.888783931732178 0.664599895477295 0.000000000000000
-7.512197017669678 -7.179312229156494 0.517301142215729 0.000000000000000
-7.510056018829346 -5.902194499969482 1.271088600158691 0.000000000000000
-7.506747722625732 -6.785725116729736 0.815945625305176 0.000000000000000
-7.505881786346436 -6.461092948913574 0.493037134408951 0.000000000000000
-7.504951477050781 -5.940678596496582 1.273726701736450 0.000000000000000
-7.504723548889160 -8.150471687316895 1.893820762634277 0.000000000000000
-7.503439426422119 -7.446556568145752 0.119932971894741 0.000000000000000
-7.498620986938477 -7.199968814849854 0.417531192302704 0.000000000000000
-7.497005939483643 -7.544787406921387 0.284091889858246 0.000000000000000
-7.495425224304199 -6.892881393432617 0.428573966026306 0.000000000000000
-7.478729248046875 -12.569615364074707 1.207635164260864 0.000000000000000
-7.477887630462646 -12.644926071166992 1.156173348426819 0.000000000000000
-7.475100517272949 -11.985461235046387 0.866424322128296 0.000000000000000
-7.475090026855469 -7.260584354400635 0.258318603038788 0.000000000000000
-7.471004962921143 -12.556632995605469 0.980715692043304 0.000000000000000
-7.456490516662598 -4.960461616516113 0.067213401198387 0.000000000000000
-7.456421852111816 -6.986875534057617 0.528367877006531 0.000000000000000
-7.455871582031250 -9.134640693664551 0.337595552206039 0.000000000000000
-7.455364704132080 1.999332785606384 1.605511665344238 1.000000000000000
-7.443522930145264 -7.274997234344482 1.385059118270874 0.000000000000000
-7.441210269927979 -10.849733352661133 1.949792981147766 0.000000000000000
-7.438220500946045 4.109844684600830 1.767610549926758 1.000000000000000
-7.433949470520020 -11.438097953796387 0.626619815826416 0.000000000000000
-7.428105831146240 -5.974912643432617 0.864207506179810 0.000000000000000
-7.421943664550781 -10.223308563232422 0.410261839628220 0.000000000000000
-7.406532764434814 -9.482658386230469 0.529552042484283 0.000000000000000
-7.405005931854248 -7.033967494964600 0.370933651924133 0.000000000000000
-7.392159461975098 -10.859287261962891 1.946861028671265 0.000000000000000
-7.386884212493896 -4.389150619506836 0.246013179421425 0.000000000000000
-7.379475116729736 -10.521776199340820 1.904639959335327 0.000000000000000
-7.376186847686768 -11.249698638916016 0.799212753772736 0.000000000000000
-7.367367267608643 -7.053707122802734 0.861867010593414 0.000000000000000
-7.365406513214111 -10.372179031372070 0.413118094205856 0.000000000000000
-7.358909606933594 1.919870018959045 1.581889271736145 0.000000000000000
-7.356710910797119 -6.201952934265137 1.092901229858398 0.000000000000000
-7.354500293731689 -10.268493652343750 0.191801533102989 0.000000000000000
-7.354169845581055 -12.098340988159180 0.786606848239899 0.000000000000000
-7.347222805023193 -10.411111831665039 0.585322320461273 0.000000000000000
-7.345697879791260 -6.086828708648682 0.831273436546326 0.000000000000000
-7.342560768127441 -12.154626846313477 0.324729323387146 0.000000000000000
-7.342142581939697 -12.084258079528809 1.167479395866394 0.000000000000000
-7.341880798339844 -9.591676712036133 0.345837950706482 0.000000000000000
-7.340092182159424 -6.892325878143311 1.232728004455566 0.000000000000000
-7.338458538055420 -9.381993293762207 0.341029882431030 0.000000000000000
-7.334146022796631 -6.146232128143311 0.365931570529938 0.000000000000000
-7.328143119812012 -7.016153335571289 0.232001781463623 0.000000000000000
-7.321921348571777 -6.822070121765137 0.094321779906750 0.000000000000000
-7.321148395538330 -5.002016544342041 0.304985791444778 0.000000000000000
-7.312235355377197 -11.209252357482910 0.666266381740570 0.000000000000000
-7.311584949493408 -5.809442996978760 2.502262592315674 0.000000000000000
-7.310676574707031 -12.529792785644531 1.378942251205444 0.000000000000000
-7.309887409210205 -12.459903717041016 0.247109830379486 0.000000000000000
-7.303426742553711 -9.841606140136719 0.775345563888550 0.000000000000000
-7.302157878875732 -9.001982688903809 0.131504267454147 0.000000000000000
-7.297618389129639 -7.383197784423828 0.556767940521240 0.000000000000000
-7.283410549163818 -11.134881973266602 0.841767668724060 0.000000000000000
-7.281880378723145 -12.645183563232422 1.233018875122070 0.000000000000000
-7.281679630279541 -9.309403419494629 0.156781822443008 0.000000000000000
-7.279028892517090 -6.025591850280762 1.156897783279419 0.000000000000000
-7.277501583099365 -5.893626213073730 0.250129014253616 0.000000000000000
-7.274826049804688 -11.552670478820801 0.653382301330566 0.000000000000000
-7.272425174713135 -12.349082946777344 0.135073915123940 0.000000000000000
-7.256796360015869 -10.424071311950684 1.882356524467468 0.000000000000000
-7.254540443420410 -6.671360969543457 0.566551983356476 0.000000000000000
-7.252242088317871 -9.977828025817871 0.566600859165192 0.000000000000000
-7.247354030609131 -4.494248390197754 0.457368016242981 0.000000000000000
-7.244675636291504 -6.253878593444824 0.697782695293427 0.000000000000000
-7.240356445312500 -12.621423721313477 3.898850440979004 0.000000000000000
-7.236086845397949 -9.722821235656738 0.696712017059326 0.000000000000000
-7.234860420227051 -12.454727172851562 0.966785848140717 0.000000000000000
-7.232875347137451 -7.800412178039551 1.818337559700012 0.000000000000000
-7.215642452239990 -11.871382713317871 1.700834155082703 0.000000000000000
-7.206034660339355 4.452621936798096 1.761908531188965 0.000000000000000
-7.200560092926025 -9.621339797973633 0.737121939659119 0.000000000000000
-7.200412273406982 -6.034159183502197 0.793833792209625 0.000000000000000
-7.196607112884521 -9.323426246643066 0.654359281063080 0.000000000000000
-7.194726467132568 -9.766180992126465 0.207498371601105 0.000000000000000
-7.192465782165527 -7.323706150054932 0.688992261886597 0.000000000000000
-7.192027568817139 -6.539886474609375 0.465226560831070 0.000000000000000
-7.191546440124512 -7.865264415740967 1.821707248687744 0.000000000000000
-7.188409805297852 -12.681709289550781 0.557457149028778 0.000000000000000
-7.186381340026855 -13.061721801757812 0.484134912490845 0.000000000000000
-7.182045936584473 -5.072385787963867 0.641064167022705 0.000000000000000
-7.181620597839355 -12.423401832580566 3.845016002655029 0.000000000000000
-7.181532382965088 -10.393917083740234 2.627793312072754 0.000000000000000
-7.181128978729248 -9.372849464416504 1.070418357849121 0.000000000000000
-7.178991794586182 -11.432765960693359 0.932164132595062 0.000000000000000
-7.176656723022461 -5.981065750122070 1.143773317337036 0.000000000000000
-7.176301479339600 -9.790108680725098 0.721165597438812 0.000000000000000
-7.169685840606689 -7.627466678619385 1.789357423782349 0.000000000000000
-7.168613910675049 -11.114563941955566 0.404085636138916 0.000000000000000
-7.166951179504395 -2.755728006362915 0.382257908582687 1.000000000000000
-7.165639877319336 -10.055505752563477 0.116375431418419 0.000000000000000
-7.164132595062256 -5.427633285522461 0.464748919010162 0.000000000000000
-7.156638622283936 -9.486155509948730 0.157630726695061 0.000000000000000
-7.153866291046143 -2.746255397796631 0.131080403923988 1.000000000000000
-7.144678592681885 -9.567539215087891 0.916703045368195 0.000000000000000
-7.142185688018799 -13.120388984680176 1.002681970596313 0.000000000000000
-7.139761924743652 -6.372031211853027 0.347559750080109 0.000000000000000
-7.135172367095947 -8.992026329040527 0.152272030711174 0.000000000000000
-7.131897926330566 -4.504769325256348 1.754577398300171 0.000000000000000
-7.131021022796631 -11.775177955627441 1.466314673423767 0.000000000000000
-7.128411769866943 -5.967043399810791 1.055884361267090 0.000000000000000
-7.123697280883789 -5.400128364562988 0.479433089494705 0.000000000000000
-7.121902465820312 1.748120069503784 1.964954257011414 1.000000000000000
-7.113316059112549 -13.121844291687012 0.427346289157867 0.000000000000000
-7.112939357757568 1.719617247581482 1.960813164710999 1.000000000000000
-7.112095355987549 -6.556191921234131 0.462931960821152 0.000000000000000
-7.110213279724121 -10.978953361511230 0.852738440036774 0.000000000000000
-7.107073307037354 -4.387535095214844 0.512311935424805 0.000000000000000
-7.105952262878418 -2.737401247024536 0.276566982269287 0.000000000000000
-7.103026866912842 -8.819247245788574 0.302461743354797 0.000000000000000
-7.102964401245117 -12.633556365966797 0.554247260093689 0.000000000000000
-7.102387428283691 -6.658863067626953 0.073067173361778 0.000000000000000
-7.099099636077881 -11.323958396911621 0.536802887916565 0.000000000000000
-7.097380161285400 -6.700873851776123 0.373268574476242 0.000000000000000
-7.091914653778076 -7.873051166534424 1.007237195968628 0.000000000000000
-7.086565017700195 -12.804524421691895 1.791733264923096 0.000000000000000
-7.082134723663330 6.418531894683838 0.807642519474030 1.000000000000000
-7.074026107788086 -4.421029090881348 0.319005519151688 1.000000000000000
-7.072384357452393 -9.164470672607422 1.978739380836487 0.000000000000000
-7.067822456359863 -6.808176040649414 0.356415718793869 0.000000000000000
-7.067633628845215 -4.909206867218018 0.727147758007050 1.000000000000000
-7.064566612243652 -6.091949462890625 0.464397609233856 0.000000000000000
-7.062455177307129 -9.432342529296875 1.026765108108521 0.000000000000000
-7.061902999877930 -6.538019657135010 0.072226636111736 0.000000000000000
-7.061165332794189 -11.300668716430664 0.843030452728271 0.000000000000000
-7.056075096130371 -11.237018585205078 1.121201872825623 0.000000000000000
-7.055026531219482 -9.548954010009766 0.865611195564270 0.000000000000000
-7.043786525726318 -12.948242187500000 0.337074697017670 0.000000000000000
-7.030508518218994 -11.938292503356934 0.769743084907532 0.000000000000000
-7.025999546051025 -11.207353591918945 0.734906077384949 0.000000000000000
-6.983458042144775 -5.893960952758789 0.630994975566864 0.000000000000000
-6.981759071350098 -4.308321952819824 0.361066222190857 0.000000000000000
-6.973310470581055 -12.012194633483887 1.848328471183777 0.000000000000000
-6.968778133392334 -4.538732051849365 0.724673271179199 0.000000000000000
-6.959396362304688 -11.790232658386230 0.497239857912064 0.000000000000000
-6.946322441101074 -6.941958904266357 0.262304395437241 0.000000000000000
-6.944924354553223 -7.764200687408447 2.166748285293579 0.000000000000000
-6.933708667755127 -5.482204437255859 1.003970503807068 0.000000000000000
-6.933238506317139 -13.110099792480469 1.109906911849976 0.000000000000000
-6.917597770690918 -9.458971023559570 0.560834169387817 0.000000000000000
-6.916751384735107 -8.971216201782227 0.673008799552917 0.000000000000000
-6.912666320800781 -10.678003311157227 0.633251428604126 0.000000000000000
-6.910102367401123 -8.478058815002441 0.481362998485565 0.000000000000000
-6.904635906219482 -12.906281471252441 1.010694146156311 0.000000000000000
-6.897935390472412 -13.182204246520996 0.425972551107407 0.000000000000000
-6.894971370697021 -11.774786949157715 0.285822153091431 0.000000000000000
-6.871696949005127 -7.000996112823486 0.526133894920349 0.000000000000000
-6.869994640350342 -6.946682453155518 0.655774950981140 0.000000000000000
-6.867346763610840 -5.030190467834473 1.455074429512024 0.000000000000000
-6.855325698852539 -7.340128421783447 0.094661071896553 0.000000000000000
-6.849748134613037 -5.054129600524902 1.455074429512024 1.000000000000000
-6.845666408538818 -6.847100734710693 1.434930324554443 0.000000000000000
-6.840085506439209 -12.029970169067383 0.609046399593353 0.000000000000000
-6.835889339447021 -5.893092155456543 0.345143496990204 1.000000000000000
-6.835305690765381 -4.540335178375244 0.187649831175804 0.000000000000000
-6.827889919281006 -2.805334568023682 0.182983934879303 1.000000000000000
-6.826704978942871 -6.311428070068359 0.355537563562393 0.000000000000000
-6.821570873260498 -11.564111709594727 0.513435363769531 0.000000000000000
-6.816434860229492 -6.480773448944092 0.215084016323090 0.000000000000000
-6.805335044860840 -10.915387153625488 0.863383352756500 0.000000000000000
-6.804245948791504 -8.636724472045898 0.145852193236351 0.000000000000000
-6.801499366760254 -12.696453094482422 0.495430022478104 0.000000000000000
-6.799985408782959 -9.065294265747070 1.679460883140564 0.000000000000000
-6.791473865509033 -11.981439590454102 0.314944475889206 0.000000000000000
-6.791046142578125 -6.363399982452393 1.139398455619812 0.000000000000000
-6.785920143127441 -7.846599578857422 0.736331343650818 0.000000000000000
-6.781478404998779 -8.999002456665039 0.517594575881958 0.000000000000000
-6.778219223022461 -12.845710754394531 0.471671283245087 0.000000000000000
-6.776662349700928 -4.149167537689209 0.472078770399094 0.000000000000000
-6.772098064422607 -8.712313652038574 1.000357270240784 0.000000000000000
-6.770592212677002 -12.026659965515137 0.262592703104019 0.000000000000000
-6.768886089324951 -4.802931785583496 0.685281097888947 0.000000000000000
-6.765741348266602 -12.262188911437988 2.393897294998169 0.000000000000000
-6.764811038970947 -10.660049438476562 0.410002201795578 0.000000000000000
-6.763916492462158 -12.057106971740723 1.692570686340332 0.000000000000000
-6.762737274169922 -6.337762832641602 0.604229032993317 0.000000000000000
-6.762299060821533 -11.365499496459961 0.277026355266571 0.000000000000000
-6.761361598968506 -5.508931159973145 0.568579018115997 0.000000000000000
-6.760504722595215 -6.382818698883057 0.212614938616753 0.000000000000000
-6.759696960449219 -6.189999580383301 0.579867541790009 0.000000000000000
-6.752216815948486 -12.612907409667969 0.519597530364990 0.000000000000000
-6.745618820190430 -5.501985549926758 0.232506781816483 0.000000000000000
-6.735873699188232 -3.681979179382324 0.695916354656219 0.000000000000000
-6.731238365173340 -10.796539306640625 0.657877922058105 0.000000000000000
-6.729632377624512 6.772521972656250 0.788303732872009 1.000000000000000
-6.725828170776367 -12.182811737060547 1.703750729560852 0.000000000000000
-6.723867893218994 -4.089140892028809 0.316078007221222 0.000000000000000
-6.708051204681396 -8.044970512390137 0.783920288085938 0.000000000000000
