# This PCD file was generated using the MATLAB® pcwrite function
# from Computer Vision Toolbox®.
# .PCD v.7 - Point Cloud Data file format
VERSION .7
FIELDS x y z intensity
SIZE 8 8 8 8
TYPE F F F F
COUNT 1 1 1 1
WIDTH 639
HEIGHT 1
VIEWPOINT 0 0 0 1 0 0 0
POINTS 639
DATA ascii
13.161526679992676 -18.489978790283203 3.020220279693604 0.000000000000000
13.174605369567871 -8.441070556640625 1.020059347152710 0.000000000000000
13.174676895141602 -16.686824798583984 1.927403092384338 1.000000000000000
13.175847053527832 -7.314918518066406 1.366191864013672 0.000000000000000
13.176527023315430 -15.962255477905273 0.950758814811707 1.000000000000000
13.187422752380371 -20.420581817626953 -1.312252044677734 1.000000000000000
13.194559097290039 -21.961170196533203 -0.447200447320938 1.000000000000000
13.194704055786133 -16.329618453979492 0.641430974006653 0.000000000000000
13.196251869201660 -20.149095535278320 1.942130684852600 1.000000000000000
13.200310707092285 -17.968727111816406 0.938388645648956 0.000000000000000
13.201142311096191 -18.610870361328125 2.289548158645630 0.000000000000000
13.205412864685059 -16.071956634521484 1.717481732368469 0.000000000000000
13.206153869628906 -9.846790313720703 1.296458125114441 0.000000000000000
13.212611198425293 -8.959405899047852 1.601845026016235 0.000000000000000
13.212650299072266 -19.727880477905273 0.451756834983826 0.000000000000000
13.216002464294434 -9.945235252380371 -0.034641269594431 0.000000000000000
13.216461181640625 -20.490650177001953 2.769495725631714 1.000000000000000
13.233809471130371 -8.142766952514648 2.302808284759521 0.000000000000000
13.237607002258301 -14.264321327209473 1.418834447860718 0.000000000000000
13.240009307861328 -16.510871887207031 1.844149351119995 0.000000000000000
13.242087364196777 -15.785780906677246 -0.557540297508240 0.000000000000000
13.242790222167969 -16.543897628784180 1.177358508110046 1.000000000000000
13.255519866943359 -17.415483474731445 1.215967774391174 1.000000000000000
13.261633872985840 -14.899182319641113 0.839486896991730 0.000000000000000
13.264412879943848 -17.590970993041992 2.697321891784668 1.000000000000000
13.267834663391113 -21.438903808593750 -1.263967275619507 1.000000000000000
13.269428253173828 -7.796961784362793 0.884720921516418 0.000000000000000
13.271724700927734 -16.005186080932617 1.155169367790222 1.000000000000000
13.272183418273926 -19.644264221191406 1.637004852294922 0.000000000000000
13.280993461608887 -12.645551681518555 2.440342187881470 0.000000000000000
13.282590866088867 -21.390935897827148 -1.020110487937927 1.000000000000000
13.284459114074707 -17.951606750488281 2.024549722671509 1.000000000000000
13.285608291625977 -16.222593307495117 1.827134847640991 0.000000000000000
13.287648200988770 -8.416666984558105 1.578282594680786 0.000000000000000
13.292616844177246 -10.802231788635254 0.819739520549774 0.000000000000000
13.297482490539551 -15.881628036499023 -0.321777611970901 0.000000000000000
13.312052726745605 -11.251944541931152 2.319512367248535 0.000000000000000
13.312497138977051 -14.186787605285645 1.493546247482300 0.000000000000000
13.314368247985840 -16.564468383789062 0.404351651668549 0.000000000000000
13.319040298461914 -21.132278442382812 2.837209463119507 1.000000000000000
13.319745063781738 -14.875363349914551 0.994029700756073 1.000000000000000
13.323910713195801 -17.246591567993164 1.799439072608948 0.000000000000000
13.326758384704590 -10.741055488586426 1.380163431167603 0.000000000000000
13.328182220458984 -21.793991088867188 0.535120725631714 1.000000000000000
13.330958366394043 -10.179021835327148 2.485766410827637 0.000000000000000
13.334774971008301 -21.804769515991211 -1.035493135452271 1.000000000000000
13.338809013366699 -16.316583633422852 1.495885372161865 0.000000000000000
13.341772079467773 -8.363438606262207 1.927838921546936 0.000000000000000
13.345592498779297 -20.210470199584961 2.965158224105835 1.000000000000000
13.345825195312500 -16.200147628784180 0.883387148380280 1.000000000000000
13.372326850891113 -18.185585021972656 1.689339280128479 1.000000000000000
13.373861312866211 -21.773801803588867 0.388036727905273 1.000000000000000
13.376863479614258 -20.167381286621094 0.971992075443268 1.000000000000000
13.387543678283691 -19.913755416870117 -0.464926630258560 1.000000000000000
13.389462471008301 -9.189252853393555 1.090011477470398 0.000000000000000
13.390285491943359 -16.944095611572266 -1.373864293098450 0.000000000000000
13.391600608825684 -7.127636909484863 2.248272657394409 0.000000000000000
13.395932197570801 -8.616883277893066 1.598250746726990 0.000000000000000
13.402567863464355 -14.938452720642090 1.907732486724854 0.000000000000000
13.403847694396973 -19.886241912841797 -0.326497763395309 1.000000000000000
13.411504745483398 -21.767726898193359 0.142797917127609 1.000000000000000
13.414388656616211 -12.948695182800293 1.215483903884888 0.000000000000000
13.416522026062012 -21.888629913330078 -1.336491227149963 1.000000000000000
13.417848587036133 -8.391567230224609 1.937560796737671 0.000000000000000
13.427012443542480 -16.550245285034180 0.078112386167049 1.000000000000000
13.444202423095703 -22.078830718994141 -1.246185779571533 1.000000000000000
13.446580886840820 -17.004344940185547 0.870699405670166 0.000000000000000
13.450695037841797 -18.216104507446289 1.476223707199097 1.000000000000000
13.452918052673340 -15.655926704406738 1.186591267585754 0.000000000000000
13.453281402587891 -17.085021972656250 1.795489311218262 1.000000000000000
13.454080581665039 -12.721113204956055 1.278522491455078 0.000000000000000
13.455657958984375 -17.540826797485352 3.778880119323730 0.000000000000000
13.456951141357422 -21.685245513916016 -1.476021170616150 1.000000000000000
13.461395263671875 -10.939389228820801 1.847615718841553 0.000000000000000
13.469529151916504 -7.539593696594238 2.638543844223022 0.000000000000000
13.489616394042969 -12.508152008056641 1.483362197875977 0.000000000000000
13.495031356811523 -21.817937850952148 -1.236747860908508 1.000000000000000
13.495230674743652 -9.591270446777344 2.027001619338989 0.000000000000000
13.496400833129883 -8.660543441772461 0.798326432704926 0.000000000000000
13.502011299133301 -17.638196945190430 1.876977443695068 1.000000000000000
13.502027511596680 -16.782337188720703 1.445758700370789 0.000000000000000
13.503352165222168 -11.076788902282715 1.660181403160095 0.000000000000000
13.507493972778320 -16.760360717773438 1.527887582778931 1.000000000000000
13.508782386779785 -7.398293972015381 1.241922020912170 0.000000000000000
13.524058341979980 -14.624608993530273 2.121729135513306 0.000000000000000
13.526413917541504 -19.820062637329102 -0.096325866878033 1.000000000000000
13.531781196594238 -10.182863235473633 -1.338774800300598 0.000000000000000
13.534170150756836 -7.082111835479736 1.451996326446533 0.000000000000000
13.534691810607910 -12.444044113159180 2.446673870086670 0.000000000000000
13.536379814147949 -21.786071777343750 -0.989814877510071 1.000000000000000
13.538702964782715 -15.469491958618164 1.657610535621643 0.000000000000000
13.539586067199707 -16.122127532958984 -1.136523246765137 0.000000000000000
13.542042732238770 -15.290891647338867 2.049530982971191 0.000000000000000
13.543094635009766 -16.121736526489258 1.372656345367432 0.000000000000000
13.543313980102539 -16.804807662963867 -1.456239581108093 0.000000000000000
13.544480323791504 -14.416345596313477 1.365869879722595 1.000000000000000
13.555377006530762 -8.306094169616699 1.805702090263367 0.000000000000000
13.557388305664062 -13.600522041320801 1.926926493644714 0.000000000000000
13.565755844116211 -10.820875167846680 1.573125004768372 0.000000000000000
13.580305099487305 -19.037479400634766 3.997242212295532 0.000000000000000
13.583749771118164 -15.810416221618652 2.551980495452881 0.000000000000000
13.588211059570312 -14.628798484802246 1.897890925407410 0.000000000000000
13.590778350830078 -9.249464035034180 0.818413794040680 0.000000000000000
13.605579376220703 -10.164206504821777 -1.342557549476624 0.000000000000000
13.619045257568359 -16.084051132202148 -1.097141385078430 0.000000000000000
13.619063377380371 -18.951538085937500 3.989154815673828 0.000000000000000
13.620934486389160 -20.580547332763672 3.021544694900513 1.000000000000000
13.621473312377930 -10.113247871398926 2.077069044113159 0.000000000000000
13.637618064880371 -17.900632858276367 2.040078639984131 1.000000000000000
13.647089958190918 -7.923355579376221 0.998352110385895 0.000000000000000
13.648650169372559 -6.474725246429443 1.609090805053711 0.000000000000000
13.655252456665039 -7.403091430664062 1.102514505386353 0.000000000000000
13.667256355285645 -16.590324401855469 1.567175149917603 0.000000000000000
13.682329177856445 -10.147321701049805 0.225967451930046 0.000000000000000
13.682737350463867 -12.567827224731445 1.354553461074829 0.000000000000000
13.691902160644531 -7.785038471221924 1.928325057029724 0.000000000000000
13.693089485168457 -18.113391876220703 1.874813318252563 1.000000000000000
13.704599380493164 -8.792117118835449 1.993461370468140 0.000000000000000
13.705846786499023 -19.002225875854492 2.661153554916382 1.000000000000000
13.707002639770508 -8.905513763427734 2.001238822937012 0.000000000000000
13.716029167175293 -16.226133346557617 -0.860778987407684 1.000000000000000
13.718311309814453 -7.440995216369629 2.076797246932983 0.000000000000000
13.720903396606445 -6.997786045074463 3.203692197799683 0.000000000000000
13.726501464843750 -10.309520721435547 1.351065754890442 0.000000000000000
13.726584434509277 -8.405730247497559 1.970615148544312 0.000000000000000
13.726691246032715 -6.299644470214844 1.849092125892639 0.000000000000000
13.731121063232422 -21.340049743652344 -0.004428947810084 0.000000000000000
13.732658386230469 -12.714798927307129 2.490468263626099 0.000000000000000
13.737800598144531 -14.757270812988281 2.147572755813599 0.000000000000000
13.754199028015137 -8.458992004394531 1.534891843795776 0.000000000000000
13.759367942810059 -13.134502410888672 1.203427314758301 0.000000000000000
13.778561592102051 -15.743558883666992 2.376304149627686 0.000000000000000
13.794567108154297 -15.949616432189941 -1.097765207290649 0.000000000000000
13.798657417297363 -15.990412712097168 -0.896310448646545 1.000000000000000
13.827513694763184 -11.831533432006836 3.785293340682983 0.000000000000000
13.850412368774414 -16.269575119018555 -1.194580316543579 0.000000000000000
13.865036964416504 -6.274292469024658 1.227133393287659 0.000000000000000
13.865965843200684 -15.088635444641113 2.327550172805786 0.000000000000000
13.873521804809570 -8.302474021911621 1.836399197578430 0.000000000000000
13.896682739257812 -16.151821136474609 -1.027188301086426 0.000000000000000
13.898270606994629 -13.111729621887207 3.974272727966309 0.000000000000000
13.912554740905762 -18.811347961425781 1.660710334777832 1.000000000000000
13.921867370605469 -6.396867752075195 1.388943672180176 0.000000000000000
13.935363769531250 -6.548277378082275 0.974106788635254 0.000000000000000
13.939682006835938 -13.454813957214355 1.337764382362366 0.000000000000000
13.945676803588867 -18.708198547363281 1.701263427734375 1.000000000000000
13.954663276672363 -18.418609619140625 2.318701505661011 1.000000000000000
13.962304115295410 -6.142979145050049 1.732571244239807 0.000000000000000
13.967423439025879 -8.011525154113770 1.459727048873901 0.000000000000000
13.969831466674805 -16.257488250732422 -0.744783341884613 1.000000000000000
13.981605529785156 -6.442945957183838 1.181854963302612 0.000000000000000
13.990763664245605 -18.600797653198242 2.335474729537964 1.000000000000000
13.992719650268555 -5.840085029602051 1.321217894554138 0.000000000000000
14.004941940307617 -8.314865112304688 1.849941849708557 0.000000000000000
14.012688636779785 -15.898751258850098 -1.225668072700500 0.000000000000000
14.022310256958008 -10.130331039428711 1.194481611251831 0.000000000000000
14.042859077453613 -6.814000129699707 1.107895493507385 0.000000000000000
14.065736770629883 -6.043698787689209 1.145729660987854 0.000000000000000
14.068539619445801 -8.342000007629395 2.176521301269531 0.000000000000000
14.072167396545410 -15.842062950134277 1.463136792182922 0.000000000000000
14.072705268859863 -16.423549652099609 -0.585238814353943 0.000000000000000
14.079223632812500 -20.295873641967773 0.375100106000900 1.000000000000000
14.102051734924316 -15.776719093322754 -1.223820447921753 0.000000000000000
14.103365898132324 -11.543060302734375 1.941246509552002 0.000000000000000
14.115143775939941 -15.938003540039062 -0.657901942729950 0.000000000000000
14.117883682250977 -12.188810348510742 1.287891030311584 0.000000000000000
14.120052337646484 -13.414423942565918 1.851333141326904 0.000000000000000
14.126352310180664 -14.996812820434570 1.541869163513184 0.000000000000000
14.143066406250000 -15.778211593627930 1.920902490615845 0.000000000000000
14.143365859985352 -6.214981555938721 1.891382098197937 0.000000000000000
14.151803970336914 -5.994844436645508 1.745662569999695 0.000000000000000
14.158866882324219 -5.614754676818848 1.528362154960632 0.000000000000000
14.163743972778320 -6.719078540802002 0.991785705089569 0.000000000000000
14.171163558959961 -5.664905071258545 0.965519905090332 0.000000000000000
14.181667327880859 -8.334980964660645 1.433373808860779 0.000000000000000
14.183588981628418 -18.900381088256836 2.059085845947266 1.000000000000000
14.199850082397461 -10.108474731445312 2.319512367248535 0.000000000000000
14.220630645751953 -4.919888019561768 2.230094194412231 0.000000000000000
14.220661163330078 -4.883244514465332 1.840828537940979 0.000000000000000
14.222353935241699 -9.455748558044434 -0.199723944067955 1.000000000000000
14.229472160339355 -4.993129253387451 1.041279435157776 0.000000000000000
14.259245872497559 -20.180845260620117 3.288262128829956 0.000000000000000
14.260107040405273 -4.655963897705078 1.238574862480164 0.000000000000000
14.261418342590332 -0.104042224586010 -1.375767111778259 0.000000000000000
14.264336585998535 -4.876543045043945 1.313578844070435 0.000000000000000
14.265100479125977 -19.758686065673828 2.983629941940308 1.000000000000000
14.270952224731445 -5.820672035217285 1.212977766990662 0.000000000000000
14.270967483520508 -7.723365306854248 1.542462229728699 0.000000000000000
14.284643173217773 -8.208063125610352 1.105816602706909 0.000000000000000
14.290173530578613 -5.736502170562744 1.463730335235596 0.000000000000000
14.293882369995117 -10.266656875610352 1.998912215232849 0.000000000000000
14.307173728942871 -4.829076766967773 1.515183210372925 0.000000000000000
14.313683509826660 -6.048103332519531 2.067827224731445 0.000000000000000
14.340214729309082 -6.468227863311768 1.426141023635864 0.000000000000000
14.345780372619629 -12.023890495300293 1.364733815193176 0.000000000000000
14.349146842956543 -11.934907913208008 1.774115443229675 0.000000000000000
14.366381645202637 -6.188925266265869 1.080131053924561 0.000000000000000
14.372621536254883 -7.393501281738281 1.209613442420959 0.000000000000000
14.379802703857422 -4.319072246551514 1.361135959625244 0.000000000000000
14.380055427551270 -4.937978744506836 1.255361318588257 0.000000000000000
14.381663322448730 -14.784857749938965 1.702999353408813 0.000000000000000
14.395077705383301 -12.404467582702637 1.806289553642273 0.000000000000000
14.395156860351562 -5.509069442749023 1.034559965133667 0.000000000000000
14.396058082580566 -4.583573818206787 1.515982031822205 0.000000000000000
14.405385971069336 -7.666575431823730 1.551168084144592 0.000000000000000
14.419473648071289 -6.167685985565186 1.781325101852417 0.000000000000000
14.422789573669434 -6.021947383880615 3.250937223434448 0.000000000000000
14.451216697692871 -6.539554119110107 1.801639318466187 0.000000000000000
14.460246086120605 -6.169607162475586 2.092098712921143 0.000000000000000
14.462930679321289 -6.230518341064453 1.330690383911133 0.000000000000000
14.465426445007324 -5.634599208831787 1.900617837905884 0.000000000000000
14.465657234191895 -9.921910285949707 2.334286212921143 0.000000000000000
14.470625877380371 -12.740526199340820 2.360460519790649 0.000000000000000
14.482376098632812 -11.103884696960449 1.189722299575806 0.000000000000000
14.486923217773438 -15.329133987426758 1.700690507888794 0.000000000000000
14.498196601867676 -8.851125717163086 2.517432212829590 0.000000000000000
14.500686645507812 -6.424609184265137 2.110566139221191 0.000000000000000
14.501443862915039 -5.838953018188477 1.049293518066406 0.000000000000000
14.503752708435059 -5.348128795623779 1.551125884056091 0.000000000000000
14.505940437316895 -4.082353591918945 2.575865745544434 0.000000000000000
14.507174491882324 -3.991038799285889 1.009914875030518 0.000000000000000
14.509693145751953 -16.119171142578125 -1.254306197166443 0.000000000000000
14.518918037414551 -5.475819110870361 1.352121591567993 0.000000000000000
14.522386550903320 -5.674308776855469 1.908881425857544 0.000000000000000
14.523428916931152 -4.346464157104492 1.521173715591431 0.000000000000000
14.526156425476074 -6.430434703826904 1.158220291137695 0.000000000000000
14.533929824829102 -5.441531658172607 2.065189123153687 0.000000000000000
14.534719467163086 -0.547189474105835 -1.009433865547180 0.000000000000000
14.538823127746582 -12.272345542907715 1.724803566932678 0.000000000000000
14.545804023742676 -11.392252922058105 1.489791989326477 0.000000000000000
14.546276092529297 -4.335880279541016 1.223918437957764 0.000000000000000
14.555464744567871 -11.599521636962891 1.769194722175598 0.000000000000000
14.562808036804199 -4.657669067382812 1.291958570480347 0.000000000000000
14.568346977233887 -7.784655094146729 1.876124501228333 0.000000000000000
14.571048736572266 -11.507106781005859 1.174635887145996 0.000000000000000
14.575290679931641 -7.822408676147461 1.237973213195801 0.000000000000000
14.577242851257324 -4.884267807006836 1.339621186256409 0.000000000000000
14.586738586425781 -7.538774967193604 1.260543227195740 0.000000000000000
14.597385406494141 -5.978491306304932 1.931241631507874 0.000000000000000
14.603339195251465 -10.945377349853516 1.506828546524048 0.000000000000000
14.603846549987793 -8.465893745422363 1.035399079322815 0.000000000000000
14.609811782836914 -22.191480636596680 0.403463423252106 1.000000000000000
14.611245155334473 -16.618753433227539 -1.450379967689514 0.000000000000000
14.611291885375977 -18.001005172729492 -1.206938743591309 1.000000000000000
14.620610237121582 -4.212006568908691 1.168076872825623 0.000000000000000
14.645462036132812 -9.458627700805664 2.320039987564087 0.000000000000000
14.651207923889160 -9.704410552978516 1.383077025413513 0.000000000000000
14.652013778686523 -5.938249111175537 3.288407325744629 0.000000000000000
14.661676406860352 -11.322843551635742 2.104094505310059 0.000000000000000
14.662304878234863 -5.616002559661865 1.266033887863159 0.000000000000000
14.673279762268066 -5.256106853485107 0.895969331264496 0.000000000000000
14.674158096313477 -4.407484054565430 2.618999004364014 0.000000000000000
14.676104545593262 -16.959297180175781 -0.434551417827606 0.000000000000000
14.681035995483398 -7.910872936248779 1.894181489944458 0.000000000000000
14.684186935424805 -10.969993591308594 1.742319822311401 0.000000000000000
14.687209129333496 -7.191375732421875 1.066118121147156 0.000000000000000
14.698445320129395 -6.137042045593262 1.514073252677917 0.000000000000000
14.703971862792969 -4.480306148529053 1.061394095420837 0.000000000000000
14.719261169433594 -12.302412033081055 2.043350458145142 0.000000000000000
14.725666046142578 -6.446956634521484 1.400734066963196 0.000000000000000
14.728074073791504 -5.959799289703369 1.594257116317749 0.000000000000000
14.733048439025879 -9.865895271301270 1.607433199882507 0.000000000000000
14.742043495178223 -3.605718851089478 0.843189299106598 0.000000000000000
14.745139122009277 -4.533943653106689 1.466380000114441 0.000000000000000
14.752009391784668 -4.555790424346924 1.274780869483948 0.000000000000000
14.757327079772949 -6.898394584655762 2.414224863052368 0.000000000000000
14.768905639648438 -18.840900421142578 -0.463841766119003 0.000000000000000
14.773549079895020 -6.483903884887695 2.146973609924316 0.000000000000000
14.784291267395020 -3.896793842315674 2.034585952758789 0.000000000000000
14.784410476684570 -7.791966915130615 1.676925301551819 0.000000000000000
14.801631927490234 -6.574021339416504 1.839559078216553 0.000000000000000
14.802608489990234 -6.020348548889160 1.072599172592163 0.000000000000000
14.805481910705566 -4.218010902404785 1.463351845741272 0.000000000000000
14.816629409790039 -4.292292594909668 0.827332735061646 0.000000000000000
14.842379570007324 -17.135719299316406 0.300723969936371 1.000000000000000
14.849993705749512 -13.114156723022461 1.597491741180420 0.000000000000000
14.856584548950195 -16.065572738647461 -0.297910124063492 1.000000000000000
14.860934257507324 -12.284424781799316 1.747916579246521 0.000000000000000
14.863059043884277 -4.810951709747314 2.078907728195190 0.000000000000000
14.874401092529297 -17.857877731323242 -1.344146966934204 1.000000000000000
14.882603645324707 -6.275028705596924 1.977420330047607 0.000000000000000
14.889107704162598 -4.593576431274414 0.835687458515167 0.000000000000000
14.893880844116211 -19.426929473876953 2.133046388626099 0.000000000000000
14.903089523315430 -6.117064476013184 1.112369656562805 0.000000000000000
14.907437324523926 -6.656557083129883 1.998808264732361 0.000000000000000
14.912100791931152 -8.410080909729004 2.096026659011841 0.000000000000000
14.924962997436523 -11.278651237487793 1.508438587188721 0.000000000000000
14.929346084594727 -3.981879711151123 2.289907455444336 0.000000000000000
14.929648399353027 -4.163376808166504 0.801433682441711 0.000000000000000
14.944715499877930 -16.018396377563477 0.164416164159775 0.000000000000000
14.945108413696289 -10.626431465148926 1.301607251167297 0.000000000000000
14.946014404296875 -10.814340591430664 1.487541556358337 0.000000000000000
14.947750091552734 -18.464200973510742 -1.373939990997314 1.000000000000000
14.955471038818359 -2.783173084259033 1.256019592285156 0.000000000000000
14.962406158447266 -2.756374120712280 1.728056907653809 0.000000000000000
14.970965385437012 -5.605755329132080 1.042178034782410 0.000000000000000
14.975108146667480 -4.920089721679688 1.790353655815125 0.000000000000000
14.985564231872559 -2.469559192657471 1.107319116592407 0.000000000000000
14.988065719604492 -6.355574131011963 1.734072923660278 0.000000000000000
14.991724014282227 -5.962294578552246 1.462616205215454 0.000000000000000
14.994494438171387 -11.157024383544922 1.254490971565247 0.000000000000000
14.994636535644531 -17.084867477416992 -0.440440505743027 0.000000000000000
14.997300148010254 -4.006172180175781 2.065716743469238 0.000000000000000
15.004136085510254 -4.621035575866699 1.423251986503601 0.000000000000000
15.010102272033691 -6.707427501678467 1.490423917770386 0.000000000000000
15.011332511901855 -6.739748477935791 1.752714157104492 0.000000000000000
15.021365165710449 -12.989444732666016 1.218087911605835 0.000000000000000
15.024764060974121 -11.934547424316406 1.176946163177490 0.000000000000000
15.030987739562988 -2.274832963943481 0.815336167812347 0.000000000000000
15.045248985290527 -4.114220142364502 2.311604261398315 0.000000000000000
15.048896789550781 -7.477540969848633 1.597347378730774 0.000000000000000
15.049921035766602 -3.212414264678955 1.639171242713928 0.000000000000000
15.052569389343262 -5.695699214935303 2.141696929931641 0.000000000000000
15.056566238403320 -18.746013641357422 2.561072587966919 0.000000000000000
15.057959556579590 -7.292923450469971 2.048389673233032 0.000000000000000
15.059116363525391 -6.994042396545410 2.032834768295288 0.000000000000000
15.067157745361328 -22.550443649291992 0.411844879388809 0.000000000000000
15.071405410766602 -7.049700260162354 2.844100952148438 0.000000000000000
15.071651458740234 -7.364616394042969 2.053736686706543 0.000000000000000
15.072508811950684 -10.895450592041016 1.248329758644104 0.000000000000000
15.080424308776855 -11.058234214782715 1.544021964073181 0.000000000000000
15.086703300476074 -10.537162780761719 0.809892773628235 0.000000000000000
15.089124679565430 -17.475984573364258 0.838556945323944 0.000000000000000
15.091728210449219 -2.164535045623779 1.866591453552246 0.000000000000000
15.099156379699707 -5.669685840606689 1.238192081451416 0.000000000000000
15.107983589172363 -12.537989616394043 2.091224908828735 0.000000000000000
15.116069793701172 -2.853751659393311 0.943565011024475 0.000000000000000
15.118248939514160 -12.221559524536133 1.847926616668701 0.000000000000000
15.120422363281250 -4.250728130340576 1.296833634376526 0.000000000000000
15.123364448547363 -2.234842300415039 1.055607676506042 0.000000000000000
15.128311157226562 -2.136378049850464 1.231955766677856 0.000000000000000
15.130241394042969 -12.596200942993164 1.784752845764160 0.000000000000000
15.139467239379883 -18.508674621582031 -0.095988668501377 1.000000000000000
15.145591735839844 -2.277578115463257 1.264577388763428 0.000000000000000
15.146046638488770 -5.609906673431396 2.393700838088989 0.000000000000000
15.146347045898438 -4.039757251739502 0.870925784111023 0.000000000000000
15.151044845581055 -5.567894458770752 1.052326560020447 0.000000000000000
15.154672622680664 -5.538025379180908 1.405942559242249 0.000000000000000
15.157699584960938 -17.319377899169922 -0.622783184051514 1.000000000000000
15.158789634704590 -13.717216491699219 1.943313121795654 0.000000000000000
15.159189224243164 -2.050141572952271 0.673239827156067 0.000000000000000
15.164440155029297 -12.750658035278320 2.250356197357178 0.000000000000000
15.180362701416016 -5.046302795410156 1.816987752914429 0.000000000000000
15.180988311767578 -11.628588676452637 1.578911542892456 0.000000000000000
15.182126045227051 -18.543651580810547 0.317914277315140 1.000000000000000
15.182188987731934 -1.655211925506592 -0.853845775127411 0.000000000000000
15.184449195861816 -12.677268981933594 2.246744871139526 0.000000000000000
15.184450149536133 -10.493053436279297 2.456171512603760 0.000000000000000
15.185503005981445 -5.372099876403809 1.972073316574097 0.000000000000000
15.188438415527344 -6.194885730743408 1.747206449508667 0.000000000000000
15.188673019409180 -7.746362686157227 1.407755732536316 0.000000000000000
15.208572387695312 -12.482683181762695 1.783669352531433 0.000000000000000
15.212477684020996 -9.187258720397949 1.892948389053345 0.000000000000000
15.217986106872559 -11.629980087280273 1.396437883377075 0.000000000000000
15.229224205017090 -17.317375183105469 0.704584598541260 1.000000000000000
15.234044075012207 -2.385859966278076 0.708296954631805 0.000000000000000
15.239668846130371 -16.406726837158203 -0.390864104032516 0.000000000000000
15.239781379699707 -2.214823007583618 0.500104010105133 0.000000000000000
15.239966392517090 -1.983653783798218 2.045138597488403 0.000000000000000
15.241392135620117 -4.928123474121094 1.452143192291260 0.000000000000000
15.242691993713379 -5.410298347473145 0.836341500282288 0.000000000000000
15.246099472045898 -11.073687553405762 2.306990385055542 0.000000000000000
15.253028869628906 -11.572645187377930 3.272737979888916 0.000000000000000
15.254665374755859 -1.931440591812134 2.046194076538086 0.000000000000000
15.259201049804688 -11.914075851440430 2.370182275772095 0.000000000000000
15.260966300964355 -18.077466964721680 -0.322087109088898 1.000000000000000
15.262412071228027 -17.131361007690430 -0.048053760081530 1.000000000000000
15.275599479675293 -6.188495635986328 1.436151623725891 0.000000000000000
15.287002563476562 -2.167224645614624 0.501402318477631 0.000000000000000
15.303498268127441 -6.766243934631348 1.590533971786499 0.000000000000000
15.314848899841309 -17.622684478759766 -0.631763577461243 1.000000000000000
15.315030097961426 -17.727613449096680 0.895875096321106 0.000000000000000
15.321108818054199 -4.346703052520752 0.762183785438538 0.000000000000000
15.326082229614258 -7.081968307495117 1.694097757339478 0.000000000000000
15.333534240722656 -6.515332698822021 1.671733617782593 0.000000000000000
15.335008621215820 -12.537263870239258 1.597170233726501 0.000000000000000
15.337386131286621 -3.572507858276367 1.178567171096802 0.000000000000000
15.338027954101562 -7.922648906707764 1.125448226928711 0.000000000000000
15.341971397399902 -16.563180923461914 -0.567538142204285 0.000000000000000
15.351889610290527 -16.625617980957031 0.691392004489899 0.000000000000000
15.353372573852539 -5.923757076263428 1.491868376731873 0.000000000000000
15.353746414184570 -4.724015235900879 1.966726183891296 0.000000000000000
15.355047225952148 -2.122221708297729 0.980673253536224 0.000000000000000
15.358771324157715 -4.840244770050049 1.530728101730347 0.000000000000000
15.362141609191895 -7.700166225433350 1.286035180091858 0.000000000000000
15.371158599853516 -18.345928192138672 0.685265123844147 1.000000000000000
15.374544143676758 -4.458570480346680 1.074474334716797 0.000000000000000
15.375375747680664 -10.220017433166504 2.260325431823730 0.000000000000000
15.377284049987793 -10.766489982604980 3.208711862564087 0.000000000000000
15.378719329833984 -16.805292129516602 0.608447968959808 0.000000000000000
15.387161254882812 -10.614098548889160 3.195232868194580 0.000000000000000
15.388074874877930 -5.968331813812256 1.298969030380249 0.000000000000000
15.403133392333984 -18.062820434570312 -0.505543172359467 1.000000000000000
15.409899711608887 -12.485816955566406 1.675908803939819 0.000000000000000
15.412552833557129 -17.649700164794922 -0.004089655820280 0.000000000000000
15.414505004882812 -17.333726882934570 1.288748264312744 1.000000000000000
15.423268318176270 -5.136319637298584 1.731530904769897 0.000000000000000
15.431970596313477 -10.670468330383301 1.259312868118286 0.000000000000000
15.438752174377441 -3.954233407974243 0.854753375053406 0.000000000000000
15.444160461425781 -16.651338577270508 0.214052394032478 1.000000000000000
15.452158927917480 -7.370962619781494 2.096026659011841 0.000000000000000
15.461627006530762 -17.014760971069336 0.260830402374268 1.000000000000000
15.462351799011230 -5.406356811523438 1.352459311485291 0.000000000000000
15.462619781494141 -8.935265541076660 2.186439514160156 0.000000000000000
15.465290069580078 -18.491031646728516 0.319771260023117 1.000000000000000
15.466300964355469 -10.725755691528320 1.888587594032288 0.000000000000000
15.469324111938477 -17.395372390747070 -0.495749115943909 1.000000000000000
15.476667404174805 -18.846967697143555 2.769947052001953 0.000000000000000
15.482207298278809 -16.959934234619141 0.436918944120407 0.000000000000000
15.498020172119141 -18.076742172241211 -0.232731074094772 1.000000000000000
15.498139381408691 -5.499139785766602 1.135515332221985 0.000000000000000
15.503785133361816 -8.884132385253906 2.648200273513794 0.000000000000000
15.511469841003418 -5.426569938659668 2.011932849884033 0.000000000000000
15.513427734375000 -18.053859710693359 -0.461207211017609 0.000000000000000
15.519964218139648 -18.121528625488281 -0.783152103424072 1.000000000000000
15.520400047302246 -8.205146789550781 1.246099114418030 0.000000000000000
15.522790908813477 -10.248616218566895 2.756684780120850 0.000000000000000
15.523481369018555 -18.234869003295898 0.133750185370445 1.000000000000000
15.524325370788574 -15.998613357543945 -0.389118850231171 1.000000000000000
15.524494171142578 -5.461251735687256 1.009440660476685 0.000000000000000
15.526708602905273 -5.619977474212646 2.822534322738647 0.000000000000000
15.539173126220703 -6.932137966156006 1.617408871650696 0.000000000000000
15.540045738220215 -16.048406600952148 2.123487710952759 0.000000000000000
15.540660858154297 -11.596735000610352 1.945696473121643 0.000000000000000
15.547054290771484 -7.990443229675293 1.754002332687378 0.000000000000000
15.548557281494141 -11.835393905639648 1.575630187988281 0.000000000000000
15.551377296447754 -17.808673858642578 -1.458497524261475 1.000000000000000
15.552763938903809 -12.060482978820801 2.409555673599243 0.000000000000000
15.553956985473633 -1.094731569290161 1.317555308341980 0.000000000000000
15.557938575744629 -18.050781250000000 0.682288765907288 0.000000000000000
15.558496475219727 -5.949303150177002 2.216622114181519 0.000000000000000
15.558506965637207 -6.440727710723877 1.526537895202637 0.000000000000000
15.562352180480957 -5.960741519927979 1.892827391624451 0.000000000000000
15.565637588500977 -10.101491928100586 1.388727068901062 0.000000000000000
15.568421363830566 -10.415854454040527 2.776036262512207 0.000000000000000
15.568853378295898 -3.512018680572510 1.517101526260376 0.000000000000000
15.570896148681641 -8.797395706176758 1.511214256286621 0.000000000000000
15.574170112609863 -7.405821800231934 1.423883795738220 0.000000000000000
15.575100898742676 -5.478137493133545 1.331296682357788 0.000000000000000
15.575677871704102 -4.351151943206787 1.836850523948669 0.000000000000000
15.575726509094238 -16.900547027587891 -0.180514067411423 1.000000000000000
15.581462860107422 -16.917430877685547 -0.136483952403069 0.000000000000000
15.587234497070312 -8.250228881835938 1.456140160560608 0.000000000000000
15.589346885681152 -3.688612937927246 1.522779226303101 0.000000000000000
15.593981742858887 -9.969698905944824 1.759353160858154 0.000000000000000
15.594787597656250 -3.031883955001831 0.821469545364380 0.000000000000000
15.595366477966309 -17.809425354003906 -0.959065794944763 1.000000000000000
15.595474243164062 -18.126289367675781 -0.050081133842468 1.000000000000000
15.598139762878418 -8.862417221069336 1.563238620758057 0.000000000000000
15.600728988647461 -3.576482772827148 3.329135656356812 0.000000000000000
15.603005409240723 -17.118646621704102 0.663170874118805 0.000000000000000
15.610522270202637 -1.701910376548767 0.811968028545380 0.000000000000000
15.612094879150391 -18.125761032104492 -1.107229590415955 1.000000000000000
15.615965843200684 -8.750373840332031 2.652891397476196 0.000000000000000
15.620942115783691 -15.798615455627441 3.292658090591431 0.000000000000000
15.621712684631348 -7.079420089721680 1.826856136322021 0.000000000000000
15.637145042419434 -18.172157287597656 -1.201880455017090 1.000000000000000
15.640699386596680 -4.428229808807373 1.846330404281616 0.000000000000000
15.641276359558105 -16.863862991333008 -1.197373032569885 0.000000000000000
15.642460823059082 -17.767255783081055 0.041315414011478 1.000000000000000
15.643072128295898 -10.328029632568359 1.633379340171814 0.000000000000000
15.644833564758301 -1.547223091125488 0.299116760492325 0.000000000000000
15.653741836547852 -10.275156021118164 1.148538708686829 0.000000000000000
15.655066490173340 -1.449245214462280 0.752431809902191 0.000000000000000
15.670923233032227 -8.942523956298828 1.385158538818359 0.000000000000000
15.674436569213867 -7.061476230621338 2.104776382446289 0.000000000000000
15.679048538208008 -13.346746444702148 2.740042686462402 0.000000000000000
15.685924530029297 -6.675086498260498 3.545810461044312 0.000000000000000
15.691526412963867 -17.300485610961914 0.848283946514130 1.000000000000000
15.692077636718750 -4.470598220825195 1.347193002700806 0.000000000000000
15.696231842041016 -3.903617858886719 1.366727828979492 0.000000000000000
15.699127197265625 -11.804812431335449 1.507936716079712 0.000000000000000
15.699372291564941 -9.841326713562012 1.529868721961975 0.000000000000000
15.703225135803223 -3.952536821365356 1.180616855621338 0.000000000000000
15.707768440246582 -4.979176998138428 1.871610403060913 0.000000000000000
15.728983879089355 -8.368179321289062 1.552474379539490 0.000000000000000
15.730681419372559 -5.965473651885986 1.910884380340576 0.000000000000000
15.731040000915527 -20.780555725097656 3.862642765045166 0.000000000000000
15.732984542846680 -9.258562088012695 2.429261684417725 0.000000000000000
15.733499526977539 -4.265263080596924 1.062735319137573 0.000000000000000
15.733595848083496 -1.711438298225403 1.031769275665283 0.000000000000000
15.734457015991211 -16.551128387451172 0.390641480684280 1.000000000000000
15.744697570800781 -8.272461891174316 2.020129442214966 0.000000000000000
15.745934486389160 -17.408649444580078 0.356454461812973 0.000000000000000
15.746000289916992 -12.600490570068359 1.003973960876465 0.000000000000000
15.754499435424805 -4.688237190246582 2.012418985366821 0.000000000000000
15.754545211791992 -4.136653900146484 1.344888806343079 0.000000000000000
15.756972312927246 -17.718833923339844 -0.140709012746811 0.000000000000000
15.769091606140137 -16.976692199707031 0.663399815559387 0.000000000000000
15.785234451293945 -18.197925567626953 -1.486081361770630 1.000000000000000
15.790260314941406 -11.266825675964355 0.629933714866638 0.000000000000000
15.791204452514648 -4.325317382812500 1.484284520149231 0.000000000000000
15.798290252685547 -16.989685058593750 -1.431159973144531 1.000000000000000
15.800054550170898 -5.053381443023682 1.145434856414795 0.000000000000000
15.805903434753418 -8.149652481079102 2.366472244262695 0.000000000000000
15.809244155883789 -4.524868011474609 1.357725501060486 0.000000000000000
15.811280250549316 -1.499060750007629 1.096663713455200 0.000000000000000
15.811367034912109 -5.360465049743652 0.831142544746399 0.000000000000000
15.819642066955566 -9.999988555908203 1.509081482887268 0.000000000000000
15.821493148803711 -4.906346321105957 1.303676486015320 0.000000000000000
15.827928543090820 -6.735516548156738 1.420263171195984 0.000000000000000
15.848302841186523 -6.109631538391113 2.079499483108521 0.000000000000000
15.857538223266602 -5.725013732910156 1.691701650619507 0.000000000000000
15.868005752563477 -11.192814826965332 3.319241046905518 0.000000000000000
15.877978324890137 -7.841869354248047 1.543099164962769 0.000000000000000
15.882987976074219 -10.193173408508301 1.448843955993652 0.000000000000000
15.890326499938965 -8.920153617858887 2.069786071777344 0.000000000000000
15.893137931823730 -6.174436569213867 1.710871219635010 0.000000000000000
15.895476341247559 -17.745683670043945 0.087319329380989 1.000000000000000
15.905802726745605 -21.632547378540039 3.979336977005005 0.000000000000000
15.906493186950684 -10.845792770385742 2.186705350875854 0.000000000000000
15.907525062561035 -16.327249526977539 0.171080470085144 0.000000000000000
15.908885955810547 -17.268087387084961 0.176213786005974 1.000000000000000
15.936501502990723 -17.762765884399414 -0.049980603158474 1.000000000000000
15.941062927246094 -17.063619613647461 0.982793450355530 1.000000000000000
15.955141067504883 -8.680610656738281 1.149127840995789 0.000000000000000
15.959922790527344 -8.176949501037598 2.036832094192505 0.000000000000000
15.962532043457031 -8.153679847717285 1.306851744651794 0.000000000000000
15.962574005126953 -2.200225830078125 -0.683807671070099 0.000000000000000
15.970304489135742 -10.633158683776855 1.324813842773438 0.000000000000000
15.977329254150391 -9.007172584533691 1.743455529212952 0.000000000000000
15.978133201599121 -9.023066520690918 1.302456974983215 0.000000000000000
15.979279518127441 -4.882611751556396 1.024868845939636 0.000000000000000
15.983323097229004 -19.003683090209961 -0.147355183959007 1.000000000000000
15.987283706665039 -8.101692199707031 1.272153973579407 0.000000000000000
15.994823455810547 -17.321893692016602 -0.366263598203659 1.000000000000000
16.000347137451172 -8.109014511108398 2.387050390243530 0.000000000000000
16.003646850585938 -8.351928710937500 1.142056226730347 0.000000000000000
16.015476226806641 -9.357939720153809 0.923425316810608 0.000000000000000
16.016725540161133 -8.569746017456055 1.934891462326050 0.000000000000000
16.018301010131836 -2.419108629226685 0.806480705738068 0.000000000000000
16.023847579956055 -17.735189437866211 0.317065387964249 1.000000000000000
16.028972625732422 -18.951616287231445 3.303036212921143 0.000000000000000
16.029289245605469 -4.215373516082764 1.176430940628052 0.000000000000000
16.037109375000000 -4.525350570678711 0.829551339149475 0.000000000000000
16.037557601928711 -16.461864471435547 0.260739654302597 1.000000000000000
16.037870407104492 -5.990571975708008 2.096026659011841 0.000000000000000
16.042869567871094 -19.063669204711914 -0.100018970668316 1.000000000000000
16.043676376342773 -11.061179161071777 2.888039350509644 0.000000000000000
16.056591033935547 -17.311639785766602 -0.140115603804588 0.000000000000000
16.057523727416992 -9.497150421142578 1.396190047264099 0.000000000000000
16.061397552490234 -16.429439544677734 0.040100667625666 1.000000000000000
16.061555862426758 -16.602045059204102 -0.092729099094868 1.000000000000000
16.069147109985352 -19.036821365356445 -0.434844136238098 1.000000000000000
16.080446243286133 -8.275582313537598 2.214146852493286 0.000000000000000
16.084470748901367 -5.657295227050781 1.936615705490112 0.000000000000000
16.104648590087891 -18.076734542846680 0.693164169788361 1.000000000000000
16.108175277709961 -6.485897541046143 1.433758258819580 0.000000000000000
16.128402709960938 -17.687015533447266 0.409455239772797 1.000000000000000
16.134021759033203 -18.049991607666016 0.832729458808899 1.000000000000000
16.134859085083008 -9.799349784851074 1.267081379890442 0.000000000000000
16.136245727539062 -8.837265014648438 2.089648723602295 0.000000000000000
16.140775680541992 -19.105436325073242 -0.676773607730865 1.000000000000000
16.141214370727539 -4.112543582916260 1.451429963111877 0.000000000000000
16.141683578491211 -8.782101631164551 1.957345843315125 0.000000000000000
16.152917861938477 -5.618088245391846 1.942484021186829 0.000000000000000
16.156049728393555 -9.708301544189453 3.920511245727539 0.000000000000000
16.156862258911133 -8.535852432250977 1.656548261642456 0.000000000000000
16.161050796508789 -9.530608177185059 1.476600408554077 0.000000000000000
16.171255111694336 -10.574917793273926 1.446043372154236 0.000000000000000
16.176422119140625 -9.769412040710449 1.487270832061768 0.000000000000000
16.179504394531250 -2.511080980300903 0.594655275344849 0.000000000000000
16.180299758911133 -6.108217239379883 2.117414712905884 0.000000000000000
16.184545516967773 -3.205213308334351 1.107423901557922 0.000000000000000
16.184667587280273 -4.460430622100830 1.906821370124817 0.000000000000000
16.196783065795898 -9.457809448242188 2.296296358108521 0.000000000000000
16.204116821289062 -17.183967590332031 -1.457019805908203 1.000000000000000
16.215982437133789 -7.953956127166748 1.177492022514343 0.000000000000000
16.221052169799805 -4.014905929565430 0.992788851261139 0.000000000000000
16.225364685058594 -19.320194244384766 3.357383251190186 0.000000000000000
16.227340698242188 -1.740218281745911 0.498632878065109 0.000000000000000
16.228170394897461 -16.663335800170898 0.085252165794373 1.000000000000000
16.228780746459961 -7.463032245635986 2.377025127410889 0.000000000000000
16.228828430175781 -1.493504881858826 1.062475085258484 0.000000000000000
16.233768463134766 -19.136785507202148 -1.209782481193542 1.000000000000000
16.234300613403320 -16.310415267944336 3.410525321960449 0.000000000000000
16.235952377319336 -5.347217082977295 1.081442832946777 0.000000000000000
16.240743637084961 -17.065193176269531 0.810316145420074 1.000000000000000
16.245908737182617 -9.281164169311523 1.472520470619202 0.000000000000000
16.245939254760742 -1.639316916465759 1.348180413246155 0.000000000000000
16.256372451782227 -9.411361694335938 1.224591732025146 0.000000000000000
16.257949829101562 -16.441722869873047 0.662026166915894 0.000000000000000
16.258152008056641 -10.156064987182617 1.822187185287476 0.000000000000000
16.259239196777344 -10.976905822753906 2.907390594482422 0.000000000000000
16.260026931762695 -9.117986679077148 1.251276373863220 0.000000000000000
16.264102935791016 -16.297630310058594 0.393856942653656 1.000000000000000
16.264129638671875 -17.855880737304688 0.737932682037354 1.000000000000000
16.265493392944336 -17.128875732421875 0.358701646327972 0.000000000000000
16.268795013427734 -2.787305593490601 1.235286355018616 0.000000000000000
16.271919250488281 -11.700745582580566 1.577341675758362 0.000000000000000
16.277767181396484 -5.192393302917480 1.410718083381653 0.000000000000000
16.280607223510742 -18.383119583129883 -0.004285830538720 0.000000000000000
16.280830383300781 -9.860798835754395 1.809317588806152 0.000000000000000
16.285762786865234 -10.215246200561523 2.183545351028442 0.000000000000000
16.288829803466797 -5.016700744628906 0.979758441448212 0.000000000000000
16.306249618530273 -12.606993675231934 2.195447206497192 0.000000000000000
16.307670593261719 -10.266307830810547 1.442162632942200 0.000000000000000
16.309488296508789 -16.247550964355469 0.349591374397278 0.000000000000000
16.309883117675781 -5.494903564453125 1.833211064338684 0.000000000000000
16.314334869384766 -18.152006149291992 0.698773562908173 1.000000000000000
16.315933227539062 -11.217403411865234 2.109018802642822 0.000000000000000
16.317558288574219 -18.854787826538086 -0.195844888687134 1.000000000000000
16.319091796875000 -17.147518157958984 0.450387179851532 1.000000000000000
16.324710845947266 -18.521965026855469 2.804255485534668 0.000000000000000
16.337993621826172 -17.193799972534180 0.679083347320557 1.000000000000000
16.338851928710938 -3.231623888015747 0.829153597354889 0.000000000000000
16.340549468994141 -5.611194133758545 1.159660696983337 0.000000000000000
16.345237731933594 -13.268263816833496 2.391201257705688 0.000000000000000
16.346157073974609 -8.355393409729004 1.303023338317871 0.000000000000000
16.354801177978516 -18.931180953979492 -0.965443611145020 1.000000000000000
16.356065750122070 -19.212873458862305 -0.634283661842346 1.000000000000000
16.356094360351562 -18.911317825317383 -0.916825532913208 1.000000000000000
16.356355667114258 -15.682991027832031 3.015471458435059 0.000000000000000
16.361093521118164 -4.183773517608643 2.502771854400635 0.000000000000000
16.366680145263672 -2.804075956344604 1.578421354293823 0.000000000000000
16.367233276367188 -18.622562408447266 -1.242937922477722 1.000000000000000
16.367374420166016 -19.058414459228516 -1.307794213294983 1.000000000000000
16.378795623779297 -10.535598754882812 1.495077252388000 0.000000000000000
16.379970550537109 -18.365755081176758 -0.382293432950974 1.000000000000000
16.385293960571289 -19.294235229492188 -0.393228530883789 1.000000000000000
16.395166397094727 -18.419643402099609 -0.477789610624313 1.000000000000000
16.396755218505859 -18.107854843139648 0.417870104312897 1.000000000000000
16.401966094970703 -2.020301103591919 0.854518353939056 0.000000000000000
16.407590866088867 -18.915407180786133 -0.004370304290205 1.000000000000000
16.407640457153320 -9.222228050231934 1.481307864189148 0.000000000000000
16.419351577758789 -17.412218093872070 0.731214165687561 1.000000000000000
16.422899246215820 -8.834688186645508 1.215744256973267 0.000000000000000
16.427785873413086 -10.454369544982910 1.306995868682861 0.000000000000000
16.431882858276367 -11.217056274414062 2.119187116622925 0.000000000000000
16.439516067504883 -19.260446548461914 0.287285536527634 1.000000000000000
16.441558837890625 -8.326130867004395 1.059415459632874 0.000000000000000
16.443593978881836 -6.717537403106689 1.782357096672058 0.000000000000000
16.446012496948242 -6.053887367248535 1.866680860519409 0.000000000000000
16.456960678100586 -18.214557647705078 -0.051413167268038 1.000000000000000
16.468292236328125 -6.373745441436768 1.423886299133301 0.000000000000000
16.480625152587891 -18.220920562744141 0.750636756420135 1.000000000000000
16.482748031616211 -6.445583820343018 2.010197877883911 0.000000000000000
16.492116928100586 -3.201560974121094 1.160038709640503 0.000000000000000
16.494606018066406 -6.782088279724121 1.093928098678589 0.000000000000000
