# This PCD file was generated using the MATLAB® pcwrite function
# from Computer Vision Toolbox®.
# .PCD v.7 - Point Cloud Data file format
VERSION .7
FIELDS x y z intensity
SIZE 8 8 8 8
TYPE F F F F
COUNT 1 1 1 1
WIDTH 649
HEIGHT 1
VIEWPOINT 0 0 0 1 0 0 0
POINTS 649
DATA ascii
0.421627461910248 -11.132271766662598 0.511721134185791 0.000000000000000
0.424830973148346 -7.620143413543701 0.247844889760017 0.000000000000000
0.427679449319839 -12.744534492492676 1.156008481979370 0.000000000000000
0.427710533142090 -13.848628044128418 1.063669443130493 0.000000000000000
0.428005069494247 -8.191437721252441 0.392564833164215 0.000000000000000
0.430289685726166 -11.939517021179199 0.456879496574402 0.000000000000000
0.431471526622772 -13.257916450500488 0.711437582969666 0.000000000000000
0.432100176811218 -10.173777580261230 0.821089506149292 0.000000000000000
0.435460537672043 -10.046113967895508 0.500594794750214 0.000000000000000
0.436081320047379 -7.105438232421875 0.645356774330139 0.000000000000000
0.436854600906372 -8.274886131286621 0.540215134620667 0.000000000000000
0.438259631395340 -8.166121482849121 0.407118618488312 0.000000000000000
0.439416408538818 -11.859196662902832 1.075835466384888 0.000000000000000
0.443535000085831 -14.361001014709473 1.441700458526611 0.000000000000000
0.443858176469803 -13.682585716247559 1.676043510437012 0.000000000000000
0.445119500160217 -12.013115882873535 0.505946040153503 0.000000000000000
0.445254534482956 -12.951272964477539 1.300325870513916 0.000000000000000
0.447683364152908 -7.395814418792725 0.397385358810425 0.000000000000000
0.449328392744064 -3.258181095123291 0.214420646429062 0.000000000000000
0.451090276241302 -10.551399230957031 0.383564293384552 0.000000000000000
0.452066838741302 -11.434620857238770 0.613751530647278 0.000000000000000
0.452755838632584 -9.701415061950684 0.483490675687790 0.000000000000000
0.453757256269455 -11.268135070800781 0.982666671276093 0.000000000000000
0.456088244915009 -14.282670974731445 1.097043156623840 0.000000000000000
0.456347942352295 -14.513172149658203 0.471541464328766 0.000000000000000
0.457407444715500 -11.280433654785156 1.023470163345337 0.000000000000000
0.458181321620941 -3.649413347244263 0.320495158433914 0.000000000000000
0.461599320173264 -14.945896148681641 0.456856191158295 0.000000000000000
0.465532362461090 -4.810093402862549 1.005175828933716 0.000000000000000
0.468161314725876 -4.200884819030762 1.132592201232910 0.000000000000000
0.469437956809998 -14.471119880676270 1.195456862449646 0.000000000000000
0.469438523054123 -14.106424331665039 0.784166038036346 0.000000000000000
0.470231950283051 -10.676008224487305 0.614300310611725 0.000000000000000
0.476810157299042 -11.419199943542480 0.723066568374634 0.000000000000000
0.477630496025085 -11.245786666870117 0.041255302727222 1.000000000000000
0.478247016668320 -6.947279453277588 0.413721293210983 0.000000000000000
0.478299081325531 -12.130355834960938 0.627720832824707 0.000000000000000
0.483213037252426 -13.408013343811035 0.719578087329865 0.000000000000000
0.486276865005493 -11.173349380493164 0.040991414338350 0.000000000000000
0.486651003360748 -13.386568069458008 0.666863083839417 0.000000000000000
0.486959040164948 -10.529028892517090 0.707476079463959 0.000000000000000
0.490229845046997 -7.258145809173584 0.278193593025208 0.000000000000000
0.490434527397156 -12.438127517700195 0.452089011669159 0.000000000000000
0.490726232528687 -7.265495300292969 0.615330696105957 0.000000000000000
0.490840494632721 -10.939732551574707 0.166292771697044 0.000000000000000
0.491342991590500 -4.279917716979980 1.154332995414734 0.000000000000000
0.491531670093536 -11.045572280883789 0.656877458095551 0.000000000000000
0.492117643356323 -6.625368595123291 0.241288349032402 0.000000000000000
0.496313512325287 -12.972555160522461 0.821310698986053 0.000000000000000
0.498134404420853 -3.670768976211548 0.163033798336983 0.000000000000000
0.499438971281052 -6.781612396240234 0.233895778656006 0.000000000000000
0.499748796224594 -14.303727149963379 0.464790314435959 0.000000000000000
0.503104567527771 -10.319917678833008 0.494482517242432 0.000000000000000
0.504014611244202 -7.224046707153320 0.569926917552948 0.000000000000000
0.504168629646301 -13.504799842834473 1.011394500732422 0.000000000000000
0.506098210811615 -11.372907638549805 0.851983428001404 0.000000000000000
0.506648421287537 -9.318830490112305 0.536479711532593 0.000000000000000
0.509905278682709 -13.463081359863281 3.610008239746094 0.000000000000000
0.510767757892609 -12.346215248107910 0.757937610149384 0.000000000000000
0.510868251323700 -7.190329074859619 0.959252357482910 0.000000000000000
0.514698505401611 -10.139286994934082 0.564049243927002 0.000000000000000
0.515582025051117 -8.415218353271484 0.468413829803467 0.000000000000000
0.516707956790924 -11.516260147094727 0.529524922370911 0.000000000000000
0.517802596092224 -9.198201179504395 1.046404361724854 0.000000000000000
0.518021225929260 -10.710476875305176 0.327617198228836 0.000000000000000
0.518495261669159 -10.905658721923828 0.627614736557007 0.000000000000000
0.531502008438110 -8.969982147216797 0.430042982101440 0.000000000000000
0.531543672084808 -10.624933242797852 1.415662288665771 0.000000000000000
0.532508134841919 -8.676601409912109 0.633792638778687 0.000000000000000
0.535727262496948 -8.402808189392090 0.047025907784700 0.000000000000000
0.537478744983673 -13.108194351196289 2.728799581527710 0.000000000000000
0.538377940654755 -14.938709259033203 1.032186508178711 0.000000000000000
0.538953661918640 -13.144165039062500 0.984527409076691 0.000000000000000
0.539857029914856 -8.430495262145996 0.063400931656361 0.000000000000000
0.541037738323212 -14.954449653625488 0.975561857223511 0.000000000000000
0.542720675468445 -3.446454048156738 0.934854447841644 0.000000000000000
0.543055117130280 -13.736086845397949 1.829333305358887 0.000000000000000
0.543986201286316 -13.957142829895020 0.480442017316818 0.000000000000000
0.550828576087952 -13.314559936523438 0.612119793891907 0.000000000000000
0.551538765430450 -13.002015113830566 0.999065518379211 0.000000000000000
0.551946699619293 -10.152006149291992 0.427901178598404 0.000000000000000
0.555629611015320 -9.438569068908691 0.143577829003334 0.000000000000000
0.558580756187439 -9.270779609680176 0.480240553617477 0.000000000000000
0.561604201793671 -12.143006324768066 0.441490918397903 0.000000000000000
0.563001930713654 -3.419706821441650 0.928642749786377 0.000000000000000
0.565733730792999 -11.144653320312500 0.448191881179810 0.000000000000000
0.565806746482849 -10.148808479309082 0.799968957901001 0.000000000000000
0.566831290721893 -9.364160537719727 1.248399972915649 0.000000000000000
0.567133963108063 -6.678329944610596 0.359467715024948 0.000000000000000
0.568861424922943 -9.200651168823242 0.689885675907135 0.000000000000000
0.571881294250488 -9.714639663696289 0.297322988510132 0.000000000000000
0.574159562587738 -10.726365089416504 0.907671689987183 0.000000000000000
0.574561953544617 -5.728043079376221 1.197413563728333 0.000000000000000
0.575996279716492 -12.577860832214355 1.430116176605225 0.000000000000000
0.579103589057922 -11.083257675170898 0.189847663044930 0.000000000000000
0.580143511295319 -6.643083095550537 0.319138139486313 0.000000000000000
0.584281623363495 -11.182358741760254 0.708418309688568 0.000000000000000
0.586031258106232 -13.574512481689453 0.885786235332489 0.000000000000000
0.587519526481628 -10.581443786621094 0.466413825750351 0.000000000000000
0.600839614868164 -10.048099517822266 0.346237242221832 0.000000000000000
0.606700479984283 -7.452699184417725 0.631833732128143 0.000000000000000
0.606950044631958 -9.519927978515625 0.493253499269485 0.000000000000000
0.607195198535919 -12.205409049987793 0.820254385471344 0.000000000000000
0.607740044593811 -7.465468883514404 0.517195403575897 0.000000000000000
0.608574211597443 -7.383297443389893 0.540134429931641 0.000000000000000
0.614030063152313 -10.850214958190918 0.666593313217163 0.000000000000000
0.615768492221832 -11.965304374694824 1.775631070137024 0.000000000000000
0.616825342178345 -9.441224098205566 0.899359583854675 0.000000000000000
0.620443999767303 -6.630299568176270 0.986917853355408 0.000000000000000
0.623503983020782 -11.261489868164062 0.344596594572067 0.000000000000000
0.623505473136902 -7.685666561126709 0.280051290988922 0.000000000000000
0.626327633857727 -13.959437370300293 0.426928430795670 0.000000000000000
0.626933991909027 -11.047444343566895 0.572157561779022 0.000000000000000
0.629991412162781 -9.366295814514160 0.485404431819916 0.000000000000000
0.635772705078125 -9.412994384765625 0.505996882915497 0.000000000000000
0.637284100055695 -9.005165100097656 0.605948865413666 0.000000000000000
0.639397084712982 -14.858836174011230 1.026951193809509 0.000000000000000
0.641208469867706 -12.362957000732422 0.950382828712463 0.000000000000000
0.643092155456543 -12.014153480529785 0.830764055252075 0.000000000000000
0.643321394920349 -11.336213111877441 0.762124001979828 0.000000000000000
0.645303964614868 -12.195005416870117 0.937523245811462 0.000000000000000
0.646023809909821 -4.638987541198730 0.974222242832184 0.000000000000000
0.647988379001617 -14.058624267578125 0.863240778446198 0.000000000000000
0.648296713829041 -12.771100997924805 1.114267587661743 0.000000000000000
0.649216532707214 -14.176750183105469 0.488142281770706 0.000000000000000
0.652882337570190 -11.985386848449707 0.991057395935059 0.000000000000000
0.653650104999542 -10.252411842346191 0.373111367225647 0.000000000000000
0.653751432895660 -13.262519836425781 1.508212685585022 0.000000000000000
0.654438734054565 -2.947599411010742 0.628031194210052 0.000000000000000
0.654731094837189 -10.816282272338867 0.414386212825775 0.000000000000000
0.658463358879089 -13.161908149719238 0.503958404064178 0.000000000000000
0.658554434776306 -10.284092903137207 1.371340513229370 0.000000000000000
0.662962079048157 -13.251832962036133 0.916182577610016 0.000000000000000
0.663083136081696 -10.724575042724609 0.638373851776123 0.000000000000000
0.663125753402710 -13.329686164855957 0.690100491046906 0.000000000000000
0.668290317058563 -11.352355003356934 0.522366702556610 0.000000000000000
0.669015169143677 -11.731065750122070 0.992881655693054 0.000000000000000
0.671073973178864 -4.171932220458984 0.878917813301086 0.000000000000000
0.673856019973755 -6.927283763885498 1.031484484672546 0.000000000000000
0.674305498600006 -9.065310478210449 0.627688407897949 0.000000000000000
0.675922393798828 -13.510893821716309 1.143093705177307 0.000000000000000
0.680351436138153 -10.073009490966797 0.697125434875488 0.000000000000000
0.681583225727081 -8.781823158264160 0.455453962087631 0.000000000000000
0.682063698768616 -9.169610977172852 1.223600745201111 0.000000000000000
0.690612852573395 -8.850102424621582 0.441923558712006 0.000000000000000
0.693200588226318 -10.929814338684082 0.840770363807678 0.000000000000000
0.694064438343048 -11.466076850891113 0.970652997493744 0.000000000000000
0.695011377334595 -12.157070159912109 0.606202960014343 0.000000000000000
0.698817014694214 -13.123850822448730 0.679566204547882 0.000000000000000
0.703092277050018 -6.785149574279785 0.378991395235062 0.000000000000000
0.703682124614716 -14.549154281616211 3.902991294860840 0.000000000000000
0.705528855323792 -3.285961866378784 0.319469481706619 0.000000000000000
0.708328485488892 -9.522712707519531 0.365167319774628 0.000000000000000
0.708402395248413 -12.794892311096191 0.588626146316528 0.000000000000000
0.709456622600555 -11.774869918823242 0.428424775600433 0.000000000000000
0.710733592510223 -6.377523899078369 0.196057260036469 0.000000000000000
0.711727082729340 -6.653205871582031 0.474933713674545 0.000000000000000
0.712014734745026 -9.022833824157715 0.820509612560272 0.000000000000000
0.712520420551300 -13.311202049255371 0.509766876697540 0.000000000000000
0.715712487697601 -6.837098598480225 0.276106745004654 0.000000000000000
0.717403888702393 -4.362779140472412 0.919646203517914 0.000000000000000
0.722442507743835 -6.334897994995117 0.452560573816299 0.000000000000000
0.723966598510742 -12.525415420532227 1.536049127578735 0.000000000000000
0.724953949451447 -9.760039329528809 0.506059944629669 0.000000000000000
0.725448846817017 -7.620501041412354 0.278018772602081 0.000000000000000
0.726779699325562 -9.330385208129883 0.790802597999573 0.000000000000000
0.727924704551697 -8.801251411437988 0.660928964614868 0.000000000000000
0.734089314937592 -6.794951438903809 0.274501472711563 0.000000000000000
0.736104249954224 -13.943264007568359 1.125863552093506 0.000000000000000
0.736356377601624 -11.186752319335938 0.450278729200363 0.000000000000000
0.748206496238708 -9.923025131225586 0.902127206325531 0.000000000000000
0.748594641685486 -14.433438301086426 0.886505424976349 0.000000000000000
0.754169881343842 -7.283030509948730 0.663774907588959 0.000000000000000
0.755134761333466 -11.798763275146484 0.770769357681274 0.000000000000000
0.758812010288239 -13.974915504455566 1.713472604751587 0.000000000000000
0.758836328983307 -11.096763610839844 1.901234269142151 0.000000000000000
0.760218560695648 -14.202291488647461 1.892650246620178 0.000000000000000
0.760412871837616 -10.592747688293457 1.573908090591431 0.000000000000000
0.763546526432037 -11.621509552001953 0.355834782123566 0.000000000000000
0.765433967113495 -9.092469215393066 0.594861149787903 0.000000000000000
0.765561699867249 -14.760576248168945 0.678929865360260 0.000000000000000
0.769156992435455 -7.556464195251465 0.261259257793427 0.000000000000000
0.769369065761566 -12.014592170715332 0.460395127534866 0.000000000000000
0.774964451789856 -9.192246437072754 0.708194494247437 0.000000000000000
0.775065839290619 -12.244299888610840 0.610777318477631 0.000000000000000
0.777501821517944 -14.601558685302734 1.207306027412415 0.000000000000000
0.779155015945435 -9.873653411865234 1.692981362342834 0.000000000000000
0.780037522315979 -11.771965980529785 0.383127450942993 0.000000000000000
0.780629098415375 -14.786651611328125 0.509318053722382 0.000000000000000
0.782966315746307 -8.881494522094727 0.598448216915131 0.000000000000000
0.783363521099091 -7.322861194610596 0.409168690443039 0.000000000000000
0.783535182476044 -8.520620346069336 1.138650417327881 0.000000000000000
0.788712680339813 -8.816493034362793 0.802452623844147 0.000000000000000
0.789052367210388 -12.175358772277832 1.493759274482727 0.000000000000000
0.789741456508636 -11.830780982971191 0.910273253917694 0.000000000000000
0.791398346424103 -9.023962974548340 0.730428874492645 0.000000000000000
0.792965471744537 -6.360878467559814 0.356136530637741 0.000000000000000
0.795509338378906 -11.784108161926270 0.769988715648651 0.000000000000000
0.801438271999359 -14.053082466125488 1.873127579689026 0.000000000000000
0.803483009338379 -6.991314888000488 0.613211750984192 0.000000000000000
0.804822802543640 -13.357666015625000 0.898208081722260 0.000000000000000
0.810980916023254 -9.996590614318848 0.673187196254730 0.000000000000000
0.812144935131073 -11.430715560913086 0.614608407020569 0.000000000000000
0.813360810279846 -8.518762588500977 0.723106145858765 0.000000000000000
0.817662656307220 -10.501857757568359 0.686718583106995 0.000000000000000
0.822062849998474 -12.305275917053223 1.400773525238037 0.000000000000000
0.824096620082855 -8.785121917724609 0.885387718677521 0.000000000000000
0.830640017986298 -4.807891368865967 0.092831954360008 0.000000000000000
0.831379413604736 -14.912355422973633 1.590873003005981 0.000000000000000
0.832868814468384 -14.613214492797852 0.954223871231079 0.000000000000000
0.838457524776459 -14.462420463562012 1.196115016937256 0.000000000000000
0.839300632476807 -9.765983581542969 0.714652776718140 0.000000000000000
0.839595198631287 -6.605283737182617 0.357111245393753 0.000000000000000
0.840111672878265 -8.798938751220703 0.610329210758209 0.000000000000000
0.840342998504639 -10.658543586730957 0.882768511772156 0.000000000000000
0.843354940414429 -9.935104370117188 0.650027632713318 0.000000000000000
0.845646202564240 -13.263844490051270 1.097371459007263 0.000000000000000
0.848292529582977 -10.121107101440430 0.799341380596161 0.000000000000000
0.848651409149170 -6.562952995300293 0.291244834661484 0.000000000000000
0.852106034755707 -11.852679252624512 1.077279925346375 0.000000000000000
0.854523301124573 -13.006214141845703 0.598721086978912 0.000000000000000
0.856009066104889 -7.225901603698730 0.634045660495758 0.000000000000000
0.863012194633484 -8.417283058166504 1.125987052917480 0.000000000000000
0.867985963821411 -6.770058631896973 0.379213303327560 0.000000000000000
0.868790328502655 -7.530610084533691 0.596603035926819 0.000000000000000
0.877003014087677 -11.807072639465332 1.449524879455566 0.000000000000000
0.888455152511597 -3.926723241806030 1.078757882118225 1.000000000000000
0.893299043178558 -12.907483100891113 0.594316005706787 0.000000000000000
0.894466817378998 -9.034782409667969 0.486930906772614 0.000000000000000
0.896567761898041 -12.618943214416504 0.483781754970551 0.000000000000000
0.899706244468689 -9.113660812377930 0.332606285810471 0.000000000000000
0.899909377098083 -12.075519561767578 0.602821946144104 0.000000000000000
0.901030719280243 -12.681757926940918 0.877882063388824 0.000000000000000
0.903201162815094 -3.931286334991455 1.080828309059143 0.000000000000000
0.904266953468323 -12.156893730163574 0.653811335563660 0.000000000000000
0.907647371292114 -8.695538520812988 0.401594668626785 0.000000000000000
0.914775192737579 -8.763825416564941 0.540474414825439 0.000000000000000
0.916266381740570 -10.771712303161621 0.538184165954590 0.000000000000000
0.916345953941345 -12.610839843750000 1.101767182350159 0.000000000000000
0.916450917720795 -14.374406814575195 0.966785848140717 0.000000000000000
0.918412864208221 -13.654356002807617 0.918567061424255 0.000000000000000
0.920243561267853 -9.206639289855957 0.763946950435638 0.000000000000000
0.920680642127991 -12.050544738769531 3.238344192504883 0.000000000000000
0.922827363014221 -14.411021232604980 1.220220565795898 0.000000000000000
0.923224508762360 -14.932049751281738 1.422093391418457 0.000000000000000
0.927205204963684 -13.579778671264648 0.128288179636002 0.000000000000000
0.931591033935547 -7.079960346221924 0.396742761135101 0.000000000000000
0.932132482528687 -9.132288932800293 0.474663555622101 0.000000000000000
0.933302640914917 -11.464674949645996 1.530688047409058 0.000000000000000
0.934481620788574 -8.273721694946289 0.703571796417236 0.000000000000000
0.942037940025330 -8.882353782653809 0.754765212535858 0.000000000000000
0.942521452903748 -4.531740665435791 1.240260958671570 0.000000000000000
0.944007277488708 -11.116230964660645 0.942698657512665 0.000000000000000
0.944656670093536 -12.705886840820312 0.830619752407074 0.000000000000000
0.946552038192749 -13.856007575988770 1.700348138809204 0.000000000000000
0.949010789394379 -8.883051872253418 0.737615287303925 0.000000000000000
0.952711939811707 -14.684782028198242 1.334050416946411 0.000000000000000
0.955766975879669 -12.311749458312988 0.757447838783264 0.000000000000000
0.957936823368073 -13.841448783874512 3.717676877975464 0.000000000000000
0.963456749916077 -10.120661735534668 0.525682687759399 0.000000000000000
0.964994370937347 -3.766318559646606 0.305990487337112 0.000000000000000
0.966314792633057 -3.397223711013794 0.291622996330261 0.000000000000000
0.966386556625366 -13.655559539794922 0.707864224910736 0.000000000000000
0.970967173576355 -11.927345275878906 0.641814768314362 0.000000000000000
0.971497952938080 -7.470931053161621 0.578374087810516 0.000000000000000
0.972104072570801 -13.115307807922363 0.806670963764191 0.000000000000000
0.974309384822845 -10.478867530822754 0.767299115657806 0.000000000000000
0.978282153606415 -8.915381431579590 0.446497946977615 0.000000000000000
0.980732321739197 -4.634262084960938 1.269248604774475 0.000000000000000
0.991131424903870 -12.724128723144531 0.488061636686325 0.000000000000000
0.991177141666412 -12.577264785766602 0.895492196083069 0.000000000000000
0.992174565792084 -13.357625007629395 1.105929136276245 0.000000000000000
0.995500147342682 -8.546367645263672 1.144982218742371 0.000000000000000
0.998804271221161 -7.366012096405029 0.312852263450623 0.000000000000000
1.002903938293457 -11.669649124145508 0.673296988010406 0.000000000000000
1.003306388854980 -8.713940620422363 0.386040121316910 0.000000000000000
1.003885507583618 -13.772336959838867 3.700077056884766 0.000000000000000
1.004159212112427 -10.919816017150879 0.757193922996521 0.000000000000000
1.004646778106689 -9.059377670288086 0.866428434848785 0.000000000000000
1.005613446235657 -10.969215393066406 0.739354133605957 0.000000000000000
1.006827831268311 -14.227015495300293 0.518000483512878 0.000000000000000
1.008069872856140 -9.546258926391602 0.792582631111145 0.000000000000000
1.008582949638367 -10.451578140258789 0.765554010868073 0.000000000000000
1.009090065956116 -13.247280120849609 1.157671570777893 0.000000000000000
1.010190010070801 -7.176968574523926 0.249296322464943 1.000000000000000
1.012052059173584 -14.429605484008789 1.166371464729309 0.000000000000000
1.012067437171936 -3.290184736251831 0.716004490852356 0.000000000000000
1.012800097465515 -12.287415504455566 0.518897414207458 0.000000000000000
1.014162778854370 -6.035802364349365 0.581782698631287 0.000000000000000
1.015676617622375 -11.960178375244141 0.459019482135773 0.000000000000000
1.021466374397278 -12.187270164489746 0.585309684276581 0.000000000000000
1.022550463676453 -8.644655227661133 1.290088653564453 0.000000000000000
1.028388857841492 -10.802743911743164 0.728370904922485 0.000000000000000
1.040900826454163 -6.071653842926025 0.585567831993103 0.000000000000000
1.041554212570190 -7.292791843414307 0.700258910655975 0.000000000000000
1.041880965232849 -3.110425710678101 0.878949522972107 0.000000000000000
1.045184016227722 -8.918714523315430 0.067393518984318 0.000000000000000
1.050328135490417 -3.372630119323730 0.734739542007446 0.000000000000000
1.050368666648865 -10.774443626403809 0.476438552141190 0.000000000000000
1.051208138465881 -7.453297615051270 0.505225300788879 0.000000000000000
1.055854678153992 -12.682678222656250 0.977020561695099 0.000000000000000
1.056452035903931 -3.117747783660889 0.882055342197418 0.000000000000000
1.061940431594849 -5.027090549468994 1.068711996078491 0.000000000000000
1.063084125518799 -11.221172332763672 0.908856689929962 0.000000000000000
1.063337922096252 -14.102428436279297 1.031112790107727 0.000000000000000
1.064377903938293 -11.574668884277344 0.444498360157013 0.000000000000000
1.072382569313049 -11.756209373474121 0.406051874160767 0.000000000000000
1.072687864303589 -10.977607727050781 0.868071496486664 0.000000000000000
1.073245882987976 -9.526163101196289 0.643452346324921 0.000000000000000
1.076687932014465 -4.917924880981445 1.348964929580688 0.000000000000000
1.078646779060364 -9.165513992309570 0.530511200428009 0.000000000000000
1.080299377441406 -13.868865966796875 0.960545122623444 0.000000000000000
1.080943942070007 -12.896905899047852 0.818785130977631 0.000000000000000
1.084923982620239 -9.605709075927734 1.286390185356140 0.000000000000000
1.084935665130615 -9.314171791076660 0.358594626188278 0.000000000000000
1.088087677955627 -10.747464179992676 0.683415353298187 0.000000000000000
1.089945793151855 -8.841167449951172 0.460617810487747 0.000000000000000
1.091750025749207 -9.395500183105469 0.634880125522614 0.000000000000000
1.093865394592285 -8.644274711608887 0.433769255876541 0.000000000000000
1.096846461296082 -9.339816093444824 0.776454508304596 0.000000000000000
1.098683118820190 -10.432257652282715 0.845844328403473 0.000000000000000
1.102374911308289 -13.241467475891113 3.560314893722534 0.000000000000000
1.106390953063965 -8.187345504760742 1.224411368370056 0.000000000000000
1.107880592346191 -11.222382545471191 0.583105027675629 0.000000000000000
1.110581517219543 -4.282272815704346 1.185391306877136 0.000000000000000
1.114001989364624 -8.516816139221191 0.427603811025620 0.000000000000000
1.116166949272156 -8.327589035034180 0.709970951080322 0.000000000000000
1.120262861251831 -8.958307266235352 0.536366879940033 0.000000000000000
1.123466134071350 -8.702531814575195 0.764604926109314 0.000000000000000
1.130355358123779 -8.306777000427246 0.643590450286865 0.000000000000000
1.134791016578674 -12.831405639648438 0.690872073173523 0.000000000000000
1.135889172554016 -14.523551940917969 0.053394392132759 0.000000000000000
1.138237953186035 -10.732298851013184 0.578832983970642 0.000000000000000
1.147255301475525 -11.621232986450195 0.783822476863861 0.000000000000000
1.147320508956909 -10.486261367797852 0.565765321254730 0.000000000000000
1.147754073143005 -14.293323516845703 0.907179594039917 0.000000000000000
1.149361133575439 -13.161056518554688 1.039740085601807 0.000000000000000
1.152745246887207 -12.167572021484375 0.796791255474091 0.000000000000000
1.153311967849731 -8.611563682556152 0.583178937435150 0.000000000000000
1.153865575790405 -10.637074470520020 1.139666676521301 0.000000000000000
1.155450344085693 -10.894591331481934 0.082223087549210 0.000000000000000
1.159922838211060 -4.558534145355225 0.044333498924971 0.000000000000000
1.166159391403198 -12.542248725891113 1.141924023628235 0.000000000000000
1.166713953018188 -8.741781234741211 1.001713275909424 0.000000000000000
1.173355102539062 -8.552381515502930 0.980496287345886 0.000000000000000
1.174684524536133 -12.303099632263184 1.644658684730530 0.000000000000000
1.174934267997742 -5.659612655639648 1.202301025390625 0.000000000000000
1.178827524185181 -4.566075325012207 0.044446595013142 1.000000000000000
1.179235816001892 -13.333954811096191 1.781317949295044 0.000000000000000
1.183709383010864 -13.231897354125977 0.968577027320862 0.000000000000000
1.184296011924744 -12.272429466247559 1.117727637290955 0.000000000000000
1.186611175537109 -9.510437965393066 0.550941944122314 0.000000000000000
1.187852382659912 -8.130511283874512 1.404527544975281 0.000000000000000
1.188215613365173 -10.409440040588379 0.949797630310059 0.000000000000000
1.192077994346619 -14.328017234802246 1.252813220024109 0.000000000000000
1.192849874496460 -8.669746398925781 0.469364583492279 0.000000000000000
1.200243949890137 -9.877800941467285 0.591165959835052 0.000000000000000
1.201207518577576 -13.582396507263184 1.152187347412109 0.000000000000000
1.202324628829956 -5.342959880828857 0.936127066612244 0.000000000000000
1.204967141151428 -7.491039276123047 0.100648097693920 0.000000000000000
1.215752720832825 -3.898777246475220 1.094286918640137 0.000000000000000
1.216510176658630 -6.780770301818848 0.733792841434479 0.000000000000000
1.216969609260559 -8.544460296630859 0.479508429765701 0.000000000000000
1.218908190727234 -9.019977569580078 0.505691647529602 0.000000000000000
1.221073746681213 -14.833165168762207 0.140276312828064 0.000000000000000
1.227652668952942 -7.339312553405762 0.528176128864288 0.000000000000000
1.227743506431580 -5.017752647399902 1.384164214134216 0.000000000000000
1.228947401046753 -9.609398841857910 1.186063289642334 1.000000000000000
1.232101917266846 -14.208638191223145 1.242743492126465 0.000000000000000
1.232359170913696 -5.562488079071045 0.973868668079376 0.000000000000000
1.237375497817993 -8.903589248657227 0.516737639904022 0.000000000000000
1.238366603851318 -9.000566482543945 0.347436279058456 0.000000000000000
1.244124293327332 -11.587962150573730 2.424151420593262 0.000000000000000
1.247498393058777 -13.065717697143555 0.703939735889435 0.000000000000000
1.247554898262024 -14.416075706481934 2.144479036331177 0.000000000000000
1.247956752777100 -13.224171638488770 1.045389056205750 0.000000000000000
1.249718785285950 -9.619677543640137 0.782189011573792 0.000000000000000
1.251379132270813 -9.221454620361328 0.696453213691711 0.000000000000000
1.258732438087463 -5.847059726715088 1.602607607841492 0.000000000000000
1.266495823860168 -9.268502235412598 0.160019353032112 0.000000000000000
1.266761779785156 -7.237328529357910 0.097464710474014 0.000000000000000
1.266827344894409 -6.879402160644531 0.591081202030182 0.000000000000000
1.267911553382874 -6.957535743713379 0.672248601913452 0.000000000000000
1.268586754798889 -13.659385681152344 2.033062458038330 0.000000000000000
1.275518774986267 -14.213449478149414 2.968282461166382 0.000000000000000
1.278185129165649 -8.039264678955078 1.083248138427734 0.000000000000000
1.278784155845642 -12.057489395141602 1.613527894020081 0.000000000000000
1.285091400146484 -14.145397186279297 1.512918114662170 0.000000000000000
1.289681911468506 -4.902376174926758 1.358282327651978 0.000000000000000
1.292716741561890 -13.057404518127441 1.108740210533142 0.000000000000000
1.296251535415649 -12.222187995910645 0.848674416542053 0.000000000000000
1.299133777618408 -14.763096809387207 0.909035384654999 0.000000000000000
1.299791216850281 -11.795993804931641 1.452927470207214 0.000000000000000
1.300146698951721 -5.791825771331787 0.021756527945399 1.000000000000000
1.302233815193176 -7.359793663024902 0.994604349136353 0.000000000000000
1.303770422935486 -9.147027015686035 0.673641026020050 0.000000000000000
1.304804682731628 -10.288155555725098 1.269671082496643 1.000000000000000
1.314751625061035 -11.171751976013184 1.922800898551941 0.000000000000000
1.315632700920105 -7.388905048370361 0.532707393169403 0.000000000000000
1.321779131889343 -12.080774307250977 1.617221355438232 0.000000000000000
1.323131918907166 -14.246694564819336 1.015570878982544 0.000000000000000
1.326999545097351 -12.008269309997559 0.671223044395447 0.000000000000000
1.335178494453430 -13.238811492919922 0.611202061176300 0.000000000000000
1.341219663619995 -12.952178955078125 0.949380040168762 0.000000000000000
1.350822329521179 -12.665063858032227 1.559381604194641 0.000000000000000
1.351569294929504 -6.071957111358643 1.666794776916504 0.000000000000000
1.355517864227295 -6.221135616302490 0.464218914508820 0.000000000000000
1.368624091148376 -11.960291862487793 2.503979206085205 0.000000000000000
1.368986845016479 -6.296689033508301 0.457375049591064 0.000000000000000
1.375644445419312 -6.429948806762695 0.466720789670944 0.000000000000000
1.391167402267456 -14.810813903808594 0.597482144832611 0.000000000000000
1.393971562385559 -5.784511089324951 1.594325423240662 0.000000000000000
1.398183941841125 -7.249761104583740 1.094229698181152 0.000000000000000
1.400027155876160 -4.545496940612793 1.274425029754639 1.000000000000000
1.403774857521057 -11.360690116882324 1.523301124572754 0.000000000000000
1.406780600547791 -12.136182785034180 1.387682080268860 0.000000000000000
1.411615967750549 6.482954025268555 0.578141331672668 0.000000000000000
1.412476897239685 -6.912282943725586 1.890414357185364 0.000000000000000
1.412647128105164 6.487689971923828 0.062579602003098 0.000000000000000
1.425226926803589 -13.963233947753906 0.078391402959824 0.000000000000000
1.433948636054993 -14.593047142028809 0.504367887973785 0.000000000000000
1.435878276824951 -14.594385147094727 1.125824093818665 0.000000000000000
1.435903549194336 -6.481224060058594 0.483997642993927 0.000000000000000
1.436402320861816 -11.967850685119629 1.604030370712280 0.000000000000000
1.447866320610046 -11.744462966918945 0.794269859790802 0.000000000000000
1.451096653938293 -13.901948928833008 0.427050590515137 0.000000000000000
1.458521842956543 -8.346632003784180 1.448334813117981 0.000000000000000
1.461029052734375 -7.053802013397217 1.231320500373840 1.000000000000000
1.464752912521362 -10.558610916137695 0.880135297775269 0.000000000000000
1.470076203346252 -7.215336799621582 1.091297745704651 0.000000000000000
1.473966479301453 -12.037491798400879 1.291763544082642 0.000000000000000
1.474280714988708 6.445322990417480 0.979880988597870 0.000000000000000
1.487656950950623 -13.596861839294434 0.523065149784088 0.000000000000000
1.489516615867615 -12.849939346313477 0.643991231918335 0.000000000000000
1.497968077659607 -9.278482437133789 0.160771906375885 0.000000000000000
1.501653313636780 -7.379539966583252 1.287258982658386 0.000000000000000
1.505076050758362 -10.538295745849609 0.632443249225616 0.000000000000000
1.505234241485596 -12.600817680358887 1.441401720046997 0.000000000000000
1.513697147369385 -9.968847274780273 1.341792583465576 0.000000000000000
1.514585375785828 -5.667938232421875 0.624910175800323 0.000000000000000
1.518968701362610 -12.110552787780762 3.270437717437744 0.000000000000000
1.524237275123596 -9.693717002868652 1.454281687736511 0.000000000000000
1.530569553375244 -14.293561935424805 0.605015933513641 0.000000000000000
1.535230875015259 -5.548647403717041 0.853217720985413 0.000000000000000
1.537362933158875 -10.764363288879395 0.813772499561310 0.000000000000000
1.538472175598145 -5.673865318298340 0.626181185245514 0.000000000000000
1.538700461387634 -13.623358726501465 0.524287939071655 0.000000000000000
1.539333343505859 -5.345047950744629 0.137882247567177 0.000000000000000
1.547403097152710 -9.611343383789062 0.848287820816040 0.000000000000000
1.548624277114868 -5.581889152526855 0.858495354652405 0.000000000000000
1.549866437911987 -12.017041206359863 3.246626138687134 0.000000000000000
1.550030589103699 -4.807018280029297 0.863339602947235 0.000000000000000
1.551616549491882 -14.218157768249512 0.519452273845673 0.000000000000000
1.557739138603210 -7.271157741546631 1.271083950996399 0.000000000000000
1.559904098510742 -13.811092376708984 0.959718525409698 0.000000000000000
1.562574505805969 -11.365764617919922 0.593226194381714 0.000000000000000
1.564335465431213 -5.159839153289795 0.050817649811506 1.000000000000000
1.568306565284729 -5.819670200347900 0.546404540538788 0.000000000000000
1.568473100662231 -13.753504753112793 0.769077360630035 0.000000000000000
1.570142149925232 6.573470115661621 0.588905513286591 0.000000000000000
1.571037054061890 -7.508343219757080 0.278599500656128 1.000000000000000
1.571098327636719 -4.858704090118408 0.313215583562851 1.000000000000000
1.572043895721436 -4.959012985229492 0.319092988967896 0.000000000000000
1.576699256896973 -8.747159957885742 0.459585070610046 0.000000000000000
1.578234553337097 -5.724279403686523 0.410008937120438 0.000000000000000
1.578485131263733 6.582957744598389 0.376106798648834 0.000000000000000
1.580196022987366 -14.517618179321289 0.502305269241333 0.000000000000000
1.581656098365784 -7.487358570098877 0.336795806884766 0.000000000000000
1.581693649291992 6.423052787780762 0.576405167579651 0.000000000000000
1.582141757011414 -4.470805168151855 0.986440718173981 0.000000000000000
1.584845304489136 -12.943009376525879 1.026245117187500 0.000000000000000
1.587275743484497 -7.631786346435547 0.118372760713100 0.000000000000000
1.588516712188721 -4.539138793945312 1.000288367271423 0.000000000000000
1.592913269996643 -12.531806945800781 1.681066036224365 0.000000000000000
1.595754742622375 -13.699552536010742 0.739715099334717 0.000000000000000
1.602099061012268 -12.851450920104980 1.128504157066345 0.000000000000000
1.607106089591980 -11.309090614318848 1.398485302925110 0.000000000000000
1.609808325767517 -7.946527957916260 0.029717307537794 0.000000000000000
1.609881997108459 -11.125029563903809 1.495863795280457 0.000000000000000
1.611814975738525 -10.370975494384766 1.396667122840881 0.000000000000000
1.613578796386719 -13.444053649902344 0.726218998432159 0.000000000000000
1.614987730979919 -14.633054733276367 1.215534687042236 0.000000000000000
1.619818925857544 -4.672746181488037 1.325153589248657 0.000000000000000
1.625894308090210 -4.637894630432129 1.316871404647827 0.000000000000000
1.629903435707092 -8.366417884826660 0.588561236858368 1.000000000000000
1.632925510406494 -8.618925094604492 1.824630141258240 0.000000000000000
1.636644363403320 -14.050590515136719 1.195297479629517 0.000000000000000
1.643735885620117 -7.283160686492920 0.709721863269806 0.000000000000000
1.645123600959778 -14.106245994567871 0.925859987735748 0.000000000000000
1.645212769508362 -14.030391693115234 1.729513525962830 0.000000000000000
1.648536205291748 -13.735312461853027 0.529026448726654 0.000000000000000
1.650836229324341 -5.708609580993652 0.456208288669586 1.000000000000000
1.655654668807983 -14.351091384887695 1.538761973381042 0.000000000000000
1.663804411888123 -8.540434837341309 0.735230863094330 0.000000000000000
1.668107986450195 6.748587131500244 0.065520085394382 0.000000000000000
1.675022602081299 -5.389140129089355 0.226664379239082 1.000000000000000
1.676016807556152 -8.386122703552246 1.461813926696777 0.000000000000000
1.676782488822937 -5.999899864196777 0.526415884494781 0.000000000000000
1.678215980529785 -5.025569438934326 0.131340041756630 0.000000000000000
1.680077791213989 -8.701610565185547 1.843365192413330 0.000000000000000
1.681512713432312 -5.001711845397949 0.344009816646576 0.000000000000000
1.681905150413513 -14.748159408569336 1.293439269065857 0.000000000000000
1.686145067214966 -6.985152244567871 0.565533220767975 0.000000000000000
1.689826488494873 -14.467609405517578 0.725136518478394 0.000000000000000
1.692660570144653 -13.698630332946777 1.166332721710205 0.000000000000000
1.693719387054443 -14.575993537902832 1.211584925651550 0.000000000000000
1.696725726127625 -5.199743270874023 0.495844930410385 1.000000000000000
1.701721906661987 -5.805890083312988 0.149975463747978 1.000000000000000
1.702372312545776 -12.061073303222656 1.620914816856384 0.000000000000000
1.706416130065918 -13.935846328735352 0.888237893581390 0.000000000000000
1.707162976264954 -14.385032653808594 0.637537777423859 0.000000000000000
1.709938049316406 -12.017654418945312 1.002248287200928 0.000000000000000
1.710448741912842 -12.118293762207031 0.656382024288177 0.000000000000000
1.712198376655579 -7.015203475952148 1.070187211036682 0.000000000000000
1.715490937232971 -12.163208961486816 0.635156869888306 0.000000000000000
1.715655207633972 -12.946129798889160 3.499233484268188 0.000000000000000
1.716369152069092 -5.387182712554932 0.966455101966858 0.000000000000000
1.717124104499817 -9.526204109191895 1.185091137886047 0.000000000000000
1.718743324279785 -14.354153633117676 0.747522830963135 0.000000000000000
1.719180703163147 -7.552355766296387 0.534830212593079 0.000000000000000
1.724701285362244 -7.422019958496094 0.555550217628479 0.000000000000000
1.726078748703003 -7.978032112121582 0.296456575393677 0.000000000000000
1.727826237678528 -4.978139400482178 0.333373337984085 0.000000000000000
1.729372620582581 -5.166750907897949 0.807478249073029 0.000000000000000
1.729621648788452 -5.097931385040283 0.423679143190384 0.000000000000000
1.730992317199707 -4.837666988372803 1.068711996078491 0.000000000000000
1.735310673713684 -13.713298797607422 0.901139140129089 0.000000000000000
1.736578345298767 -5.245090961456299 1.480445027351379 0.000000000000000
1.738723993301392 -13.800215721130371 1.481566786766052 0.000000000000000
1.740494251251221 -13.876749038696289 0.427294909954071 0.000000000000000
1.743931293487549 -5.503567695617676 0.465519815683365 0.000000000000000
1.748337149620056 -12.090760231018066 0.819986522197723 0.000000000000000
1.750863671302795 -4.728380203247070 1.351035475730896 0.000000000000000
1.756384134292603 -12.265783309936523 3.320131063461304 0.000000000000000
1.760819673538208 -14.080592155456543 0.624523162841797 0.000000000000000
1.764530181884766 -12.241960525512695 1.404836297035217 0.000000000000000
1.764616131782532 -5.284302234649658 0.825656771659851 0.000000000000000
1.769139289855957 -4.890393733978271 0.494344949722290 0.000000000000000
1.770090937614441 -5.346311092376709 0.565098643302917 0.000000000000000
1.798876047134399 -14.152161598205566 0.985068559646606 0.000000000000000
1.801056742668152 -10.538827896118164 0.882768511772156 0.000000000000000
1.801195502281189 -8.565061569213867 1.297125458717346 0.000000000000000
1.812378883361816 -14.052456855773926 1.421732306480408 0.000000000000000
1.815563559532166 -14.015445709228516 0.458947956562042 0.000000000000000
1.815973162651062 -14.018608093261719 0.894299209117889 0.000000000000000
1.820423483848572 -14.732609748840332 1.025022387504578 0.000000000000000
1.827627778053284 -4.989100456237793 0.533149600028992 0.000000000000000
1.830655813217163 -12.650678634643555 1.080112457275391 0.000000000000000
1.833062052726746 -11.275259017944336 0.965264201164246 0.000000000000000
1.834482073783875 -8.241453170776367 0.648183166980743 0.000000000000000
1.834927558898926 -4.432532310485840 0.997844636440277 0.000000000000000
1.836819887161255 6.915915012359619 0.067442707717419 0.000000000000000
1.846733808517456 -5.464730739593506 0.985999882221222 0.000000000000000
1.850322365760803 -9.324306488037109 0.803264200687408 0.000000000000000
1.851869821548462 -14.325150489807129 0.580145180225372 0.000000000000000
1.852784991264343 -7.426695823669434 0.160335168242455 0.000000000000000
1.854176282882690 -13.674235343933105 1.006098508834839 0.000000000000000
1.857483386993408 -13.500367164611816 0.940981566905975 0.000000000000000
1.858585834503174 -13.414740562438965 1.658058166503906 0.000000000000000
1.861032605171204 -8.737474441528320 0.341627866029739 1.000000000000000
1.862701892852783 -10.333836555480957 0.704797267913818 0.000000000000000
1.869581937789917 -13.834994316101074 0.560721457004547 0.000000000000000
1.871031403541565 -14.351213455200195 0.748349070549011 0.000000000000000
1.872411370277405 -5.456123828887939 0.364942789077759 0.000000000000000
1.874839782714844 -13.490491867065430 1.234736919403076 0.000000000000000
1.880079388618469 -11.721998214721680 2.029286146163940 0.000000000000000
1.881401896476746 6.889537334442139 0.177036464214325 0.000000000000000
1.883762598037720 -9.327296257019043 0.785670518875122 0.000000000000000
1.884442925453186 -9.615746498107910 0.809039890766144 0.000000000000000
1.892883419990540 -5.223618507385254 1.488727211952209 1.000000000000000
1.893043994903564 -7.332524776458740 0.537521898746490 0.000000000000000
1.896509885787964 -11.179613113403320 1.388277411460876 0.000000000000000
1.896989822387695 -13.798214912414551 1.705209016799927 0.000000000000000
1.900217652320862 -4.777948379516602 1.069526553153992 0.000000000000000
1.902652502059937 -10.277805328369141 0.863019764423370 0.000000000000000
1.902715086936951 -7.553258895874023 2.087116718292236 0.000000000000000
1.911925554275513 -14.479550361633301 1.064853072166443 0.000000000000000
1.911947846412659 -11.301715850830078 1.301911234855652 0.000000000000000
1.913635611534119 -13.039419174194336 3.531327247619629 0.000000000000000
1.914430260658264 -9.519378662109375 0.764191687107086 0.000000000000000
1.918720841407776 -7.398363590240479 0.116064824163914 0.000000000000000
1.923204183578491 -2.822591066360474 0.915184199810028 0.000000000000000
1.930340647697449 -8.177389144897461 1.436203479766846 0.000000000000000
1.936773896217346 -11.913194656372070 1.606140851974487 0.000000000000000
1.939111948013306 -2.825755119323730 0.918290019035339 0.000000000000000
1.940792083740234 -11.423713684082031 0.755416393280029 0.000000000000000
1.968979358673096 -11.396800994873047 1.313648343086243 0.000000000000000
1.969430088996887 -10.761254310607910 0.019093893468380 0.000000000000000
1.976761817932129 -11.645290374755859 1.571844220161438 0.000000000000000
1.982605576515198 -6.058985710144043 1.708205819129944 0.000000000000000
1.986484527587891 -10.878026008605957 2.962960720062256 0.000000000000000
1.989351749420166 -7.782401561737061 2.152339220046997 0.000000000000000
1.990280270576477 -7.423680305480957 0.634592711925507 0.000000000000000
1.995045900344849 -5.972260475158691 1.076310276985168 1.000000000000000
1.998866200447083 -9.883002281188965 1.341792583465576 0.000000000000000
2.008594512939453 -7.669394016265869 0.562727093696594 0.000000000000000
2.030098199844360 -3.048727512359619 0.981441915035248 0.000000000000000
2.035021305084229 -10.119009971618652 1.099418282508850 0.000000000000000
2.035538196563721 -12.250566482543945 1.652573347091675 0.000000000000000
2.044545412063599 -11.120167732238770 0.758909463882446 0.000000000000000
2.058330774307251 -3.113457441329956 1.000076770782471 0.000000000000000
2.067070960998535 -5.529808044433594 0.874914705753326 0.000000000000000
2.069839239120483 -2.823007822036743 0.937960207462311 0.000000000000000
2.070847272872925 -10.095535278320312 1.170546412467957 0.000000000000000
2.071354866027832 -14.177834510803223 0.823658227920532 0.000000000000000
2.073555231094360 -8.393924713134766 0.613703846931458 0.000000000000000
2.077628374099731 -12.684550285339355 2.197101593017578 0.000000000000000
2.084550380706787 -8.110558509826660 0.707613408565521 1.000000000000000
2.084984540939331 -7.728368282318115 1.664975166320801 0.000000000000000
2.087830781936646 -12.044625282287598 1.626718997955322 0.000000000000000
2.089085102081299 -6.345027446746826 0.461260050535202 0.000000000000000
2.092174291610718 -9.602012634277344 0.413604140281677 0.000000000000000
2.092236757278442 -3.641599178314209 1.125345230102539 0.000000000000000
2.093662738800049 -7.241329193115234 0.302754253149033 1.000000000000000
2.094844341278076 -10.849806785583496 1.050388336181641 0.000000000000000
2.099801540374756 -6.312973976135254 0.446559131145477 0.000000000000000
2.100008487701416 -14.163065910339355 0.988650560379028 0.000000000000000
2.101428031921387 7.113449573516846 0.198116719722748 0.000000000000000
2.103279590606689 -2.975080251693726 0.976265430450439 0.000000000000000
2.103708744049072 -14.537600517272949 1.014276146888733 0.000000000000000
2.109858751296997 -5.526331901550293 0.876673936843872 0.000000000000000
2.116499900817871 -8.670391082763672 1.856398344039917 0.000000000000000
2.117149829864502 -14.726588249206543 1.170923709869385 0.000000000000000
2.125343322753906 7.287932395935059 0.086126670241356 0.000000000000000
2.125855207443237 -3.446222066879272 1.084969520568848 0.000000000000000
2.127931356430054 -3.476689815521240 1.092216491699219 0.000000000000000
2.134728908538818 -11.592470169067383 0.450765341520309 0.000000000000000
2.136572122573853 -8.962838172912598 0.193005353212357 0.000000000000000
2.137602567672729 -2.653990268707275 0.913113594055176 0.000000000000000
2.139970064163208 -11.710420608520508 0.295093804597855 0.000000000000000
2.140509605407715 -7.710065364837646 0.697241902351379 1.000000000000000
2.147868871688843 -8.237540245056152 1.132846355438232 0.000000000000000
2.154659509658813 -7.732230186462402 0.137306049466133 0.000000000000000
2.163218021392822 -2.501783370971680 0.886196494102478 0.000000000000000
2.165165662765503 -5.683099269866943 0.901302814483643 1.000000000000000
2.174587965011597 -8.712721824645996 0.758806705474854 0.000000000000000
2.175008773803711 -11.679548263549805 1.192098498344421 0.000000000000000
2.191345691680908 -9.052402496337891 0.338268280029297 0.000000000000000
2.200117349624634 -4.502530574798584 0.856600046157837 0.000000000000000
2.202328681945801 -7.245988368988037 1.122377038002014 0.000000000000000
2.208031654357910 -4.360186100006104 1.016579627990723 0.000000000000000
2.208999872207642 -11.688564300537109 2.033329963684082 0.000000000000000
2.214864015579224 -2.373655080795288 0.675276100635529 0.000000000000000
2.226128101348877 -6.226922512054443 0.599492073059082 0.000000000000000
2.237192153930664 -12.895596504211426 0.853258848190308 0.000000000000000
2.237548112869263 -9.374821662902832 0.516922295093536 0.000000000000000
2.237758636474609 -12.394730567932129 1.064282894134521 0.000000000000000
2.239718198776245 -11.703278541564941 0.089427739381790 0.000000000000000
2.240715980529785 -10.030962944030762 0.670064508914948 0.000000000000000
