# This PCD file was generated using the MATLAB® pcwrite function
# from Computer Vision Toolbox®.
# .PCD v.7 - Point Cloud Data file format
VERSION .7
FIELDS x y z intensity
SIZE 8 8 8 8
TYPE F F F F
COUNT 1 1 1 1
WIDTH 642
HEIGHT 1
VIEWPOINT 0 0 0 1 0 0 0
POINTS 642
DATA ascii
-3.269306182861328 -7.572321891784668 0.681002199649811 0.000000000000000
-3.267969369888306 -5.711742401123047 0.556054115295410 0.000000000000000
-3.266640424728394 -6.878911495208740 0.932323515415192 0.000000000000000
-3.264999628067017 -3.263404130935669 0.185408890247345 0.000000000000000
-3.258812189102173 -6.941674709320068 0.695194065570831 0.000000000000000
-3.257479190826416 -4.306534767150879 0.050893045961857 0.000000000000000
-3.257218360900879 -8.055424690246582 0.734220445156097 0.000000000000000
-3.255590438842773 -9.264359474182129 0.933426201343536 0.000000000000000
-3.254297971725464 -10.812167167663574 1.132992863655090 1.000000000000000
-3.254237174987793 -7.682154655456543 1.426094293594360 0.000000000000000
-3.248616218566895 -9.231118202209473 1.672762632369995 0.000000000000000
-3.238268375396729 -12.706086158752441 0.451015979051590 0.000000000000000
-3.235832929611206 -6.113748550415039 0.694092869758606 0.000000000000000
-3.234323978424072 -6.267999172210693 0.614600718021393 0.000000000000000
-3.229185581207275 -1.240603685379028 0.245538175106049 0.000000000000000
-3.229062557220459 -7.531787872314453 0.692457437515259 0.000000000000000
-3.223998069763184 -10.318712234497070 2.896702766418457 0.000000000000000
-3.221651554107666 8.666463851928711 1.580430388450623 0.000000000000000
-3.217644214630127 -5.668224334716797 0.538153052330017 0.000000000000000
-3.217466592788696 -7.787636756896973 0.549322783946991 0.000000000000000
-3.216059923171997 -4.355628967285156 0.248702332377434 0.000000000000000
-3.208926200866699 -12.442035675048828 0.269151985645294 1.000000000000000
-3.207655191421509 -5.643970966339111 0.398192763328552 0.000000000000000
-3.206991672515869 -0.481462687253952 0.242698848247528 0.000000000000000
-3.204585552215576 -12.425206184387207 0.071667037904263 1.000000000000000
-3.203486442565918 -5.977983474731445 0.155094608664513 0.000000000000000
-3.202228307723999 -10.328139305114746 0.247273489832878 1.000000000000000
-3.192656517028809 -12.574797630310059 1.096278786659241 0.000000000000000
-3.190420627593994 -10.418484687805176 0.416678994894028 1.000000000000000
-3.186324119567871 -6.320455074310303 0.502404510974884 0.000000000000000
-3.186118364334106 -9.002817153930664 1.017226696014404 0.000000000000000
-3.184577465057373 8.659154891967773 1.577060699462891 0.000000000000000
-3.184098958969116 -10.474188804626465 0.523929655551910 1.000000000000000
-3.178231954574585 -6.823825836181641 0.070948675274849 0.000000000000000
-3.178071022033691 -10.538245201110840 0.146011367440224 1.000000000000000
-3.177115440368652 -12.591870307922363 0.197206959128380 0.000000000000000
-3.175625324249268 -10.232229232788086 0.553980708122253 1.000000000000000
-3.174831390380859 -10.510250091552734 0.124561488628387 1.000000000000000
-3.173826217651367 -3.670174598693848 1.009248614311218 0.000000000000000
-3.168407917022705 -10.488985061645508 1.872928023338318 0.000000000000000
-3.159747123718262 -10.448450088500977 1.452597141265869 0.000000000000000
-3.158941030502319 -5.694662094116211 0.223995432257652 0.000000000000000
-3.157679319381714 -10.675198554992676 1.264442920684814 1.000000000000000
-3.156923294067383 -7.017266750335693 0.516476333141327 0.000000000000000
-3.156182765960693 -10.599366188049316 2.300337314605713 0.000000000000000
-3.154293537139893 -7.879912376403809 0.586081326007843 1.000000000000000
-3.153147220611572 -4.032651901245117 0.225292637944221 0.000000000000000
-3.146441936492920 -5.377162933349609 0.154436051845551 0.000000000000000
-3.145995378494263 -6.299426078796387 0.513374924659729 0.000000000000000
-3.144701242446899 10.004753112792969 1.052321553230286 1.000000000000000
-3.135423898696899 -6.739902973175049 0.673886835575104 0.000000000000000
-3.132235050201416 -6.538651943206787 0.612636268138885 0.000000000000000
-3.129758119583130 -12.485917091369629 1.062811136245728 0.000000000000000
-3.127265214920044 -10.223715782165527 0.121294304728508 1.000000000000000
-3.122874498367310 -10.225950241088867 1.309044480323792 1.000000000000000
-3.118308305740356 -6.015314102172852 0.246079280972481 0.000000000000000
-3.116666078567505 -3.863354206085205 0.046783905476332 0.000000000000000
-3.112989902496338 -6.748260498046875 0.070043914020061 0.000000000000000
-3.106575727462769 -10.280396461486816 0.101220622658730 1.000000000000000
-3.105788230895996 -10.534910202026367 1.461567163467407 0.000000000000000
-3.103995084762573 -4.195116043090820 0.473093122243881 0.000000000000000
-3.102371931076050 9.546980857849121 1.715895891189575 1.000000000000000
-3.098144531250000 -3.706128358840942 0.119742460548878 0.000000000000000
-3.094562530517578 -4.646949768066406 1.495974183082581 0.000000000000000
-3.093525648117065 -5.417376041412354 0.565544903278351 0.000000000000000
-3.085291385650635 -4.139538288116455 0.468037158250809 0.000000000000000
-3.084581136703491 -8.892173767089844 2.521932840347290 0.000000000000000
-3.082573175430298 -10.221584320068359 1.307100057601929 1.000000000000000
-3.078015804290771 -8.288933753967285 1.082525730133057 1.000000000000000
-3.075098752975464 -5.610272407531738 0.579990506172180 0.000000000000000
-3.073829174041748 -6.377827644348145 0.584562599658966 0.000000000000000
-3.070027351379395 -1.320828795433044 0.895513951778412 1.000000000000000
-3.069475889205933 -9.121818542480469 1.645130515098572 0.000000000000000
-3.065310239791870 -12.292464256286621 1.046024680137634 1.000000000000000
-3.063339948654175 -10.695815086364746 1.057580232620239 0.000000000000000
-3.057281970977783 -8.913851737976074 2.525038719177246 0.000000000000000
-3.055444717407227 -3.660238981246948 0.706616759300232 0.000000000000000
-3.052549839019775 -9.177371978759766 1.653217911720276 0.000000000000000
-3.051727533340454 -3.727951526641846 0.419803529977798 0.000000000000000
-3.051667690277100 -4.317849636077881 0.080291830003262 0.000000000000000
-3.045672655105591 -3.669313192367554 0.264938950538635 0.000000000000000
-3.038422822952271 -10.209105491638184 1.578599452972412 0.000000000000000
-3.037020444869995 -10.418191909790039 0.060608688741922 1.000000000000000
-3.031324148178101 -10.416245460510254 1.443627238273621 0.000000000000000
-3.030126333236694 -3.477418661117554 0.265140831470490 0.000000000000000
-3.029954671859741 -10.579248428344727 0.653793513774872 1.000000000000000
-3.024072408676147 -10.373775482177734 0.558731496334076 1.000000000000000
-3.023977994918823 -5.309347152709961 0.151462331414223 0.000000000000000
-3.020325899124146 -4.242009162902832 0.079077132046223 0.000000000000000
-3.019083738327026 -6.815840721130371 0.748006939888000 0.000000000000000
-3.016176939010620 -6.201101779937744 0.625132977962494 0.000000000000000
-3.013579845428467 -6.639704704284668 0.489420264959335 0.000000000000000
-3.012921810150146 -10.705183982849121 1.184575557708740 0.000000000000000
-3.011056184768677 -8.251293182373047 0.997650444507599 1.000000000000000
-3.008492708206177 -5.321610927581787 0.186773553490639 0.000000000000000
-3.003625392913818 -5.433436393737793 0.440665990114212 0.000000000000000
-3.002587080001831 9.698594093322754 1.735440611839294 1.000000000000000
-3.002553462982178 -9.591723442077637 0.955380260944366 0.000000000000000
-3.001345157623291 -10.342826843261719 2.240059614181519 0.000000000000000
-2.999258995056152 -3.492874383926392 0.273521006107330 0.000000000000000
-2.998568058013916 -11.936923980712891 0.944871664047241 0.000000000000000
-2.998306989669800 -7.916396617889404 0.339996546506882 0.000000000000000
-2.996037721633911 -12.012879371643066 0.878783106803894 1.000000000000000
-2.993725061416626 -5.348089694976807 0.293324112892151 0.000000000000000
-2.990314722061157 -5.152758598327637 1.018349885940552 0.000000000000000
-2.990062475204468 -3.482164382934570 0.954672574996948 0.000000000000000
-2.987639665603638 -6.976067543029785 0.538654685020447 0.000000000000000
-2.981539249420166 -5.041307926177979 0.359255105257034 0.000000000000000
-2.980095624923706 -10.521622657775879 0.103067852556705 0.000000000000000
-2.979933738708496 -5.607745647430420 0.145218297839165 0.000000000000000
-2.976755857467651 -1.531684398651123 0.044408250600100 0.000000000000000
-2.975271224975586 -7.744381904602051 0.572855234146118 0.000000000000000
-2.974767684936523 -10.364693641662598 0.939609885215759 1.000000000000000
-2.974734067916870 -5.362589359283447 0.305289238691330 0.000000000000000
-2.973695993423462 -7.916424274444580 0.355911523103714 0.000000000000000
-2.969736814498901 -10.507430076599121 0.144844114780426 0.000000000000000
-2.961268186569214 -11.695956230163574 2.062310218811035 1.000000000000000
-2.961154699325562 -3.395152568817139 0.250294089317322 0.000000000000000
-2.957335948944092 -12.400155067443848 0.904837965965271 0.000000000000000
-2.956538438796997 -11.772218704223633 0.230938524007797 0.000000000000000
-2.953737258911133 -7.079177379608154 0.871251285076141 0.000000000000000
-2.941128492355347 -10.539621353149414 1.339668154716492 1.000000000000000
-2.938478708267212 -8.491092681884766 0.957065820693970 1.000000000000000
-2.938025474548340 -10.228592872619629 1.416189908981323 0.000000000000000
-2.935828447341919 -10.384683609008789 0.080992296338081 1.000000000000000
-2.933026075363159 -10.329308509826660 0.555220067501068 1.000000000000000
-2.925058126449585 -11.566507339477539 0.892881035804749 0.000000000000000
-2.922224044799805 -10.382926940917969 0.350280523300171 1.000000000000000
-2.920998811721802 -6.897501468658447 0.618464589118958 0.000000000000000
-2.919168233871460 -7.689615726470947 0.219690620899200 0.000000000000000
-2.916828870773315 -12.301649093627930 0.799843430519104 0.000000000000000
-2.912758827209473 -9.279868125915527 1.294304728507996 0.000000000000000
-2.909750223159790 -8.451487541198730 1.527861833572388 0.000000000000000
-2.909693241119385 -6.811139106750488 0.704044103622437 0.000000000000000
-2.908862829208374 -9.277653694152832 1.661979317665100 0.000000000000000
-2.905260086059570 -6.922159194946289 1.283215165138245 0.000000000000000
-2.901374816894531 -10.394362449645996 0.080992296338081 1.000000000000000
-2.901048898696899 -6.110697269439697 0.900156497955322 0.000000000000000
-2.898934125900269 -12.100982666015625 0.643419086933136 0.000000000000000
-2.898015499114990 -6.870933055877686 0.471773773431778 0.000000000000000
-2.896761894226074 -6.846925258636475 0.706693708896637 0.000000000000000
-2.889304876327515 -7.709745407104492 0.330686002969742 0.000000000000000
-2.877152681350708 -2.474568128585815 0.196227326989174 0.000000000000000
-2.875148534774780 -8.446660995483398 1.525165915489197 0.000000000000000
-2.874411821365356 -5.717369556427002 0.097176194190979 0.000000000000000
-2.874392032623291 -7.902479648590088 0.224603489041328 0.000000000000000
-2.872108459472656 -4.480474948883057 0.326439708471298 0.000000000000000
-2.871546745300293 -8.603104591369629 1.030153036117554 1.000000000000000
-2.866393327713013 -5.543086528778076 0.543765366077423 0.000000000000000
-2.864788293838501 -9.345794677734375 1.196757316589355 1.000000000000000
-2.861984968185425 -8.420514106750488 1.088844895362854 1.000000000000000
-2.855860471725464 -4.953279972076416 0.760859131813049 0.000000000000000
-2.854768753051758 -11.975647926330566 0.139672219753265 1.000000000000000
-2.852924585342407 -10.474493026733398 0.415150463581085 1.000000000000000
-2.852041006088257 -4.316980838775635 0.519171893596649 0.000000000000000
-2.846639871597290 -5.940864562988281 0.239255845546722 0.000000000000000
-2.843547105789185 -10.471770286560059 1.328488111495972 1.000000000000000
-2.841205835342407 -3.234760761260986 0.239199489355087 0.000000000000000
-2.832093000411987 -5.350926399230957 0.464781314134598 0.000000000000000
-2.829207181930542 -10.702075958251953 0.636337935924530 0.000000000000000
-2.825750589370728 -10.363308906555176 0.555426597595215 0.000000000000000
-2.819912195205688 10.059776306152344 1.048327922821045 1.000000000000000
-2.819792509078979 -5.465353488922119 0.472129613161087 0.000000000000000
-2.816040754318237 -10.712018013000488 0.019331255927682 1.000000000000000
-2.813999414443970 -6.255300521850586 0.420722723007202 0.000000000000000
-2.812973022460938 -6.734863758087158 0.777430653572083 0.000000000000000
-2.812776327133179 -10.549701690673828 1.162968516349792 0.000000000000000
-2.806520938873291 -6.294383049011230 0.529079079627991 0.000000000000000
-2.805540323257446 -3.315915584564209 0.378482908010483 0.000000000000000
-2.804322481155396 -10.667442321777344 0.868071496486664 0.000000000000000
-2.804070949554443 -6.668667316436768 0.611289083957672 0.000000000000000
-2.802838087081909 -5.470633029937744 1.050699830055237 0.000000000000000
-2.793525218963623 -10.626369476318359 0.525841832160950 1.000000000000000
-2.787676095962524 -6.008005619049072 0.100577369332314 0.000000000000000
-2.787212371826172 -6.461899280548096 1.463776946067810 0.000000000000000
-2.786279439926147 -6.898363113403320 0.648282229900360 0.000000000000000
-2.785371541976929 -10.400961875915527 1.023513555526733 1.000000000000000
-2.784541845321655 -10.276460647583008 0.325296252965927 0.000000000000000
-2.782675743103027 -12.511531829833984 0.416233986616135 0.000000000000000
-2.782660007476807 10.061885833740234 1.047529101371765 1.000000000000000
-2.780174493789673 -2.759483337402344 0.341329097747803 0.000000000000000
-2.775675773620605 -6.859010219573975 0.496653079986572 0.000000000000000
-2.773206949234009 -10.431275367736816 0.371263116598129 0.000000000000000
-2.765169620513916 -8.561643600463867 0.958336830139160 1.000000000000000
-2.764514446258545 -8.575475692749023 1.023381710052490 1.000000000000000
-2.763874769210815 -12.458802223205566 0.242808848619461 0.000000000000000
-2.763779401779175 -5.793344497680664 0.257806658744812 0.000000000000000
-2.759564399719238 -4.884671211242676 0.139071762561798 0.000000000000000
-2.756386756896973 -12.451766967773438 0.267141520977020 1.000000000000000
-2.754076719284058 -10.689238548278809 0.549520671367645 0.000000000000000
-2.752375841140747 -9.259812355041504 0.387994170188904 1.000000000000000
-2.749143838882446 -3.455652952194214 0.041619203984737 0.000000000000000
-2.748526334762573 -10.605619430541992 0.019121818244457 0.000000000000000
-2.745190620422363 -4.925253868103027 0.491333335638046 0.000000000000000
-2.742616891860962 -5.393389225006104 0.336166262626648 0.000000000000000
-2.741404533386230 -10.225349426269531 1.809576034545898 1.000000000000000
-2.741268157958984 -9.324846267700195 1.189952015876770 0.000000000000000
-2.739109992980957 -3.376248598098755 0.057672362774611 0.000000000000000
-2.737957239151001 -10.057927131652832 0.038205873221159 1.000000000000000
-2.736369848251343 -12.541707992553711 0.836865007877350 0.000000000000000
-2.733476161956787 -3.702047586441040 0.140599325299263 0.000000000000000
-2.732454061508179 -4.319309711456299 0.463342368602753 0.000000000000000
-2.728403091430664 7.915778636932373 1.741544365882874 1.000000000000000
-2.728170871734619 -5.703325748443604 0.351254910230637 0.000000000000000
-2.723437070846558 -10.297608375549316 1.578599452972412 1.000000000000000
-2.716056823730469 -6.584429264068604 0.601858735084534 0.000000000000000
-2.715045213699341 -9.258332252502441 0.387512594461441 0.000000000000000
-2.708235502243042 -3.068217992782593 0.356607288122177 0.000000000000000
-2.703332185745239 -9.379432678222656 1.108701109886169 1.000000000000000
-2.702898025512695 -8.673205375671387 0.967657566070557 1.000000000000000
-2.702792644500732 -6.206516265869141 0.643481135368347 0.000000000000000
-2.693114042282104 -6.860734939575195 0.154387518763542 0.000000000000000
-2.681190252304077 -4.455378055572510 0.409242659807205 0.000000000000000
-2.676449537277222 -5.187524795532227 0.178344935178757 0.000000000000000
-2.672926664352417 -12.371139526367188 0.947212100028992 1.000000000000000
-2.672235488891602 -10.260340690612793 0.446234971284866 0.000000000000000
-2.665505409240723 -6.381794452667236 0.330993503332138 0.000000000000000
-2.664492130279541 -3.586564302444458 0.007798127364367 0.000000000000000
-2.649178743362427 -8.628435134887695 1.025187373161316 1.000000000000000
-2.643903017044067 -5.477959632873535 0.337941408157349 0.000000000000000
-2.639889717102051 -8.630377769470215 1.542688846588135 1.000000000000000
-2.636505126953125 -8.543029785156250 2.395629167556763 0.000000000000000
-2.634166717529297 5.810221672058105 1.326929688453674 0.000000000000000
-2.632549047470093 -10.368721961975098 1.423576951026917 1.000000000000000
-2.620176315307617 -6.961275100708008 0.170091971755028 0.000000000000000
-2.616466522216797 -6.226155281066895 0.375219255685806 0.000000000000000
-2.615266561508179 -6.165969371795654 0.372112751007080 0.000000000000000
-2.612600564956665 -4.098121166229248 0.440590530633926 0.000000000000000
-2.608542442321777 -7.250270366668701 0.205806419253349 0.000000000000000
-2.607837677001953 -9.462532043457031 0.413099557161331 1.000000000000000
-2.607031345367432 -6.303575038909912 0.726590454578400 0.000000000000000
-2.603181123733521 -11.543715476989746 0.954187035560608 1.000000000000000
-2.602438449859619 -4.122860431671143 0.489219665527344 0.000000000000000
-2.599938869476318 -4.960776805877686 0.354335457086563 0.000000000000000
-2.597801208496094 -11.710187911987305 1.362402319908142 0.000000000000000
-2.596488475799561 -11.604605674743652 0.981841266155243 0.000000000000000
-2.594339132308960 -4.444841861724854 0.236404895782471 0.000000000000000
-2.593255758285522 -12.196118354797363 0.692746579647064 1.000000000000000
-2.589555025100708 -4.948943614959717 0.342602491378784 0.000000000000000
-2.586641073226929 -8.662357330322266 1.203022837638855 0.000000000000000
-2.585057258605957 -11.429870605468750 0.470665693283081 1.000000000000000
-2.575751304626465 -6.208604335784912 0.638938963413239 0.000000000000000
-2.575666427612305 -9.375822067260742 0.975643813610077 0.000000000000000
-2.572709560394287 -5.441626071929932 0.241753920912743 0.000000000000000
-2.569643259048462 -10.271143913269043 0.079461306333542 1.000000000000000
-2.567427158355713 -12.219243049621582 0.669663906097412 1.000000000000000
-2.562232255935669 -10.425258636474609 0.782714962959290 1.000000000000000
-2.561068296432495 -12.365842819213867 0.774590194225311 0.000000000000000
-2.557251691818237 -10.375298500061035 1.421993970870972 0.000000000000000
-2.551805019378662 -4.740406036376953 0.469110488891602 0.000000000000000
-2.545766353607178 -11.762714385986328 0.993690550327301 1.000000000000000
-2.545064926147461 -9.230991363525391 1.419097542762756 1.000000000000000
-2.540204286575317 -6.551074504852295 0.498722851276398 0.000000000000000
-2.537593364715576 -9.190115928649902 0.805621743202209 1.000000000000000
-2.533092975616455 -9.300232887268066 1.282696723937988 1.000000000000000
-2.530927419662476 -9.183464050292969 1.628281474113464 0.000000000000000
-2.529723882675171 -3.186686754226685 0.163416653871536 0.000000000000000
-2.529590368270874 -9.322017669677734 0.797519803047180 0.000000000000000
-2.528820514678955 -11.560404777526855 0.384295880794525 0.000000000000000
-2.524119853973389 -3.963297128677368 0.446651637554169 0.000000000000000
-2.522174119949341 -11.559976577758789 1.343893885612488 1.000000000000000
-2.521733999252319 -9.962870597839355 0.895511448383331 1.000000000000000
-2.518962860107422 -10.326937675476074 0.365625441074371 1.000000000000000
-2.518429040908813 -6.487524032592773 0.588049948215485 1.000000000000000
-2.517684221267700 -8.670447349548340 1.105372190475464 0.000000000000000
-2.515068531036377 -11.692914009094238 1.273969531059265 0.000000000000000
-2.511481046676636 -3.793283462524414 0.412421643733978 0.000000000000000
-2.506212711334229 -11.486821174621582 0.404401838779449 1.000000000000000
-2.501069068908691 -9.997045516967773 1.371340513229370 0.000000000000000
-2.500220298767090 -7.430113792419434 0.088940076529980 0.000000000000000
-2.500117778778076 -2.870790958404541 0.361863523721695 0.000000000000000
-2.497054815292358 -9.207201957702637 1.413819789886475 1.000000000000000
-2.495202064514160 -9.102817535400391 1.005364060401917 0.000000000000000
-2.494267463684082 -10.358306884765625 0.345996141433716 1.000000000000000
-2.493693590164185 -4.917252540588379 0.168450459837914 0.000000000000000
-2.492675065994263 -11.923449516296387 0.512674033641815 0.000000000000000
-2.490715980529785 -9.172418594360352 1.976954221725464 0.000000000000000
-2.488894462585449 -11.316380500793457 0.822425425052643 1.000000000000000
-2.487477540969849 -9.150391578674316 1.620867967605591 1.000000000000000
-2.485123872756958 -11.226357460021973 0.771767795085907 0.000000000000000
-2.482201337814331 -11.416954994201660 0.087686620652676 1.000000000000000
-2.480314731597900 -9.548720359802246 0.453170537948608 1.000000000000000
-2.479634523391724 -9.390348434448242 0.923206210136414 1.000000000000000
-2.477982521057129 -11.218224525451660 0.793290138244629 1.000000000000000
-2.475142240524292 -2.779601573944092 0.324314713478088 0.000000000000000
-2.474946260452271 -5.250489711761475 0.199657067656517 0.000000000000000
-2.469460725784302 -9.910366058349609 2.124390840530396 1.000000000000000
-2.467313528060913 -9.470810890197754 1.198215603828430 1.000000000000000
-2.464924097061157 -10.395752906799316 0.018647089600563 1.000000000000000
-2.464900493621826 -10.385156631469727 0.469755411148071 0.000000000000000
-2.464336633682251 -2.282719612121582 0.337062358856201 0.000000000000000
-2.460591077804565 -11.917358398437500 1.619331955909729 1.000000000000000
-2.460251569747925 -3.863013029098511 0.272097676992416 0.000000000000000
-2.457329750061035 -10.257599830627441 0.058910842984915 1.000000000000000
-2.456819772720337 -10.008411407470703 0.979605436325073 1.000000000000000
-2.456807613372803 -11.844738006591797 0.416089743375778 1.000000000000000
-2.449407100677490 -3.761112928390503 0.180272012948990 0.000000000000000
-2.449218988418579 -5.469662189483643 0.569670081138611 0.000000000000000
-2.445675611495972 -11.425570487976074 0.604173600673676 1.000000000000000
-2.444825649261475 -6.297920227050781 0.050702739506960 0.000000000000000
-2.444628953933716 -6.239880084991455 0.372334659099579 0.000000000000000
-2.444313049316406 -10.068204879760742 1.378727436065674 1.000000000000000
-2.440522432327271 -11.225252151489258 0.616107940673828 1.000000000000000
-2.440232753753662 -9.472501754760742 1.301691651344299 0.000000000000000
-2.436649084091187 -12.203108787536621 0.835255801677704 1.000000000000000
-2.434209108352661 -2.239076375961304 0.331870645284653 0.000000000000000
-2.431095123291016 -11.290040969848633 0.508271455764771 1.000000000000000
-2.428124427795410 -5.157225131988525 0.207026004791260 0.000000000000000
-2.423821449279785 -3.744079113006592 0.325185924768448 0.000000000000000
-2.419115304946899 -5.102918148040771 0.313755154609680 0.000000000000000
-2.418735980987549 -6.009520530700684 0.160581782460213 0.000000000000000
-2.416521072387695 -10.134078025817871 1.275504112243652 0.000000000000000
-2.415502548217773 -11.860920906066895 0.929256439208984 1.000000000000000
-2.413991212844849 -11.664924621582031 0.615947246551514 1.000000000000000
-2.413528919219971 -4.549910545349121 0.127672433853149 0.000000000000000
-2.411841392517090 -11.890691757202148 0.277451068162918 0.000000000000000
-2.410810232162476 -11.797854423522949 0.391047030687332 0.000000000000000
-2.409082174301147 -10.028381347656250 1.171449184417725 1.000000000000000
-2.408179521560669 -2.519488096237183 0.463796943426132 0.000000000000000
-2.405057430267334 -2.947631359100342 0.167430594563484 0.000000000000000
-2.401904344558716 -11.828984260559082 0.786902964115143 0.000000000000000
-2.400569677352905 -2.716406345367432 0.328637212514877 0.000000000000000
-2.400111436843872 -5.017508029937744 0.394786864519119 0.000000000000000
-2.399477720260620 -11.908665657043457 2.526787042617798 1.000000000000000
-2.398974180221558 -11.534524917602539 1.254904389381409 1.000000000000000
-2.398346185684204 -11.615888595581055 0.271232664585114 1.000000000000000
-2.390410661697388 -4.706055641174316 0.478510230779648 0.000000000000000
-2.383803367614746 -3.776492357254028 0.136446088552475 0.000000000000000
-2.380512237548828 -3.677179336547852 0.748766839504242 0.000000000000000
-2.380031108856201 -11.858112335205078 0.951865851879120 0.000000000000000
-2.379791259765625 -4.120091915130615 0.365272790193558 0.000000000000000
-2.377298355102539 -11.633855819702148 0.203119903802872 0.000000000000000
-2.374685287475586 -2.842309236526489 0.042019650340080 0.000000000000000
-2.374638795852661 -6.339788436889648 0.167817875742912 0.000000000000000
-2.369962692260742 -8.868968009948730 2.459816455841064 1.000000000000000
-2.369910478591919 -11.749214172363281 0.850745916366577 0.000000000000000
-2.362549304962158 -4.419463634490967 0.856600046157837 0.000000000000000
-2.360395669937134 -11.714699745178223 1.135933518409729 1.000000000000000
-2.358389616012573 -8.806551933288574 1.896312117576599 1.000000000000000
-2.355338096618652 -11.503875732421875 0.358766466379166 1.000000000000000
-2.347945928573608 -4.657431602478027 0.209487959742546 0.000000000000000
-2.344456434249878 -7.313528537750244 1.138210058212280 0.000000000000000
-2.340649604797363 -10.256000518798828 0.078950978815556 1.000000000000000
-2.339301347732544 -3.763953447341919 1.187461853027344 0.000000000000000
-2.337918043136597 -10.201339721679688 0.359987735748291 1.000000000000000
-2.337291002273560 -8.393292427062988 2.334547996520996 1.000000000000000
-2.336675882339478 -3.910340070724487 1.220590591430664 0.000000000000000
-2.334901571273804 -11.721244812011719 0.825253188610077 0.000000000000000
-2.333048105239868 -6.163170814514160 0.163357272744179 0.000000000000000
-2.332382202148438 -9.381879806518555 0.970052719116211 1.000000000000000
-2.329663515090942 -11.530987739562988 0.971308708190918 0.000000000000000
-2.325623989105225 -2.633822917938232 0.520726680755615 0.000000000000000
-2.325388431549072 -10.189130783081055 0.721648812294006 1.000000000000000
-2.323417186737061 -10.345171928405762 0.527842104434967 0.000000000000000
-2.322470664978027 -9.247514724731445 1.082969903945923 1.000000000000000
-2.321621417999268 -11.567095756530762 0.383127450942993 0.000000000000000
-2.321246623992920 -5.979578495025635 0.146681457757950 0.000000000000000
-2.319452762603760 -9.853451728820801 1.347068905830383 1.000000000000000
-2.315981388092041 -10.217767715454102 0.481252819299698 0.000000000000000
-2.313311338424683 -9.827360153198242 0.697125434875488 0.000000000000000
-2.312872886657715 -9.932700157165527 1.158357977867126 1.000000000000000
-2.312165260314941 -9.848691940307617 1.238561153411865 1.000000000000000
-2.307928323745728 -3.891481399536133 1.212308406829834 0.000000000000000
-2.307458639144897 -5.791326045989990 0.154535174369812 0.000000000000000
-2.307071208953857 -10.041787147521973 0.651845872402191 1.000000000000000
-2.304847002029419 -11.642455101013184 0.682249784469604 1.000000000000000
-2.302560567855835 -11.558892250061035 0.995912849903107 0.000000000000000
-2.301276683807373 -9.300421714782715 0.772544264793396 0.000000000000000
-2.293564081192017 -9.940856933593750 0.969763934612274 1.000000000000000
-2.293309211730957 -10.169599533081055 1.184089183807373 1.000000000000000
-2.292123079299927 -11.506495475769043 1.561291337013245 0.000000000000000
-2.291274547576904 -6.085517406463623 0.136209502816200 0.000000000000000
-2.286899328231812 -4.318473339080811 0.724208831787109 0.000000000000000
-2.285829782485962 -2.358300447463989 0.277521878480911 0.000000000000000
-2.281897544860840 -9.988923072814941 0.667982757091522 0.000000000000000
-2.281375646591187 -4.911661148071289 0.217514321208000 0.000000000000000
-2.281091451644897 -3.585981845855713 0.129849776625633 0.000000000000000
-2.281036615371704 -9.609004974365234 0.396662682294846 1.000000000000000
-2.275767803192139 -12.144056320190430 0.116450838744640 1.000000000000000
-2.274086475372314 -4.405583381652832 1.031241893768311 0.000000000000000
-2.273692369461060 -3.745308637619019 1.174003243446350 0.000000000000000
-2.272529840469360 -3.675520658493042 0.738657474517822 1.000000000000000
-2.270481109619141 -2.836255073547363 0.329359501600266 0.000000000000000
-2.269582748413086 -10.036627769470215 0.452871620655060 0.000000000000000
-2.264975309371948 -12.105133056640625 0.139717608690262 1.000000000000000
-2.261971950531006 -9.393619537353516 0.760425627231598 0.000000000000000
-2.260461091995239 -3.904053211212158 0.207221373915672 0.000000000000000
-2.257696390151978 -9.081459999084473 2.507439136505127 1.000000000000000
-2.255314826965332 -8.559610366821289 2.371817827224731 1.000000000000000
-2.253001451492310 -8.799725532531738 2.433934450149536 0.000000000000000
-2.252999067306519 -11.868021965026855 0.021083567291498 1.000000000000000
-2.252849340438843 -11.950301170349121 1.618276715278625 1.000000000000000
-2.250600814819336 -3.508095502853394 0.183435007929802 0.000000000000000
-2.249683856964111 -8.916177749633789 2.463957309722900 0.000000000000000
-2.243721961975098 -11.819153785705566 0.205788031220436 1.000000000000000
-2.234927177429199 -9.118916511535645 2.515721082687378 0.000000000000000
-2.234163999557495 -8.601088523864746 2.381135463714600 1.000000000000000
-2.230283737182617 -6.715435504913330 0.672627091407776 0.000000000000000
-2.226388216018677 -11.991487503051758 0.983442783355713 1.000000000000000
-2.221534729003906 -4.664036750793457 0.247241258621216 0.000000000000000
-2.220757484436035 -11.925209045410156 0.207498371601105 1.000000000000000
-2.220307111740112 -9.487930297851562 2.610966682434082 0.000000000000000
-2.214218139648438 -4.865633487701416 0.569409728050232 0.000000000000000
-2.213246822357178 -4.811060428619385 0.212698504328728 0.000000000000000
-2.211489915847778 -3.195942640304565 0.369433909654617 0.000000000000000
-2.208087682723999 -3.657212734222412 0.523034512996674 0.000000000000000
-2.206447601318359 -4.451099395751953 0.018208632245660 0.000000000000000
-2.202866792678833 -2.753367662429810 0.263893961906433 0.000000000000000
-2.199937582015991 -12.046909332275391 0.963791608810425 0.000000000000000
-2.197879791259766 -4.143375873565674 0.408692091703415 0.000000000000000
-2.194007396697998 -3.605390787124634 0.516715288162231 0.000000000000000
-2.190731287002563 -4.243738174438477 0.707789540290833 0.000000000000000
-2.187052011489868 -6.269083023071289 0.241143181920052 0.000000000000000
-2.186072587966919 -9.474963188171387 2.022569894790649 1.000000000000000
-2.181745767593384 -6.020112037658691 0.097236931324005 0.000000000000000
-2.181560039520264 -5.361258506774902 1.203930139541626 0.000000000000000
-2.180845975875854 -3.341076374053955 0.221670031547546 0.000000000000000
-2.175748825073242 -9.599081993103027 0.987624645233154 0.000000000000000
-2.174397945404053 -9.464312553405762 0.315356343984604 0.000000000000000
-2.170727968215942 -4.136207580566406 1.251649022102356 0.000000000000000
-2.165777921676636 -5.280450344085693 0.086669020354748 1.000000000000000
-2.163513660430908 -9.031126976013184 1.136968135833740 1.000000000000000
-2.163375616073608 -4.930411338806152 0.413343042135239 0.000000000000000
-2.143927812576294 -4.050200462341309 0.399316847324371 0.000000000000000
-2.142632007598877 7.870985984802246 1.696743249893188 0.000000000000000
-2.141196489334106 -3.314731836318970 0.120566062629223 0.000000000000000
-2.135934352874756 -3.801834821701050 0.745397090911865 0.000000000000000
-2.134178161621094 -10.134418487548828 0.695153534412384 1.000000000000000
-2.124439954757690 -3.829281568527222 0.336185693740845 0.000000000000000
-2.123786926269531 -4.298857212066650 1.284777760505676 0.000000000000000
-2.121331930160522 -4.439884185791016 0.841099023818970 0.000000000000000
-2.117853641510010 -3.604170322418213 0.445274978876114 0.000000000000000
-2.115395307540894 -4.605762481689453 0.398886054754257 0.000000000000000
-2.110702991485596 -4.548992156982422 0.503197371959686 0.000000000000000
-2.108450174331665 -11.167204856872559 0.412745386362076 1.000000000000000
-2.106491327285767 -4.222754001617432 0.981553316116333 1.000000000000000
-2.106200456619263 -12.203759193420410 1.177191972732544 1.000000000000000
-2.104557275772095 -10.169672966003418 0.377176374197006 1.000000000000000
-2.104010343551636 -10.078362464904785 2.141496896743774 1.000000000000000
-2.097741365432739 -3.590718507766724 0.616310477256775 0.000000000000000
-2.097666740417480 -3.942149400711060 0.360070556402206 0.000000000000000
-2.093543767929077 -4.128207206726074 1.240260958671570 0.000000000000000
-2.092606544494629 -11.201204299926758 0.151157841086388 1.000000000000000
-2.087574005126953 -9.501160621643066 2.023384571075439 1.000000000000000
-2.082962274551392 -12.652047157287598 0.811208486557007 0.000000000000000
-2.076699018478394 -11.116054534912109 0.846311450004578 0.000000000000000
-2.076077699661255 -3.446856260299683 0.403755992650986 0.000000000000000
-2.076018095016479 -2.332693576812744 0.533774375915527 0.000000000000000
-2.074867010116577 -11.141793251037598 0.717005252838135 0.000000000000000
-2.074240684509277 -6.173460960388184 1.354625105857849 0.000000000000000
-2.072610139846802 -3.642678499221802 0.329842060804367 0.000000000000000
-2.070262670516968 -9.488714218139648 0.035596262663603 1.000000000000000
-2.063096046447754 -2.301943540573120 0.528382718563080 0.000000000000000
-2.061313152313232 -10.034821510314941 0.273625344038010 1.000000000000000
-2.060847043991089 -9.627750396728516 0.660864651203156 0.000000000000000
-2.060425281524658 -9.637285232543945 0.642481267452240 1.000000000000000
-2.058756351470947 -4.163382530212402 0.966076612472534 0.000000000000000
-2.058536052703857 -11.018833160400391 1.065529108047485 1.000000000000000
-2.057451725006104 -9.919366836547852 0.660436391830444 1.000000000000000
-2.053451061248779 -3.543244361877441 0.606928110122681 0.000000000000000
-2.052086830139160 -8.849101066589355 1.208826780319214 0.000000000000000
-2.051657915115356 -11.095700263977051 0.953476190567017 0.000000000000000
-2.048801183700562 -4.212227821350098 0.800661623477936 0.000000000000000
-2.042476654052734 -3.757394552230835 0.311806172132492 0.000000000000000
-2.037973165512085 -3.590982913970947 0.157897785305977 0.000000000000000
-2.037349462509155 -9.446265220642090 0.969653427600861 1.000000000000000
-2.031075239181519 -3.398928880691528 0.060127776116133 0.000000000000000
-2.026941776275635 -5.406338691711426 0.343028098344803 0.000000000000000
-2.026822805404663 -3.437020540237427 0.682045102119446 0.000000000000000
-2.026266098022461 -8.983214378356934 0.706969678401947 1.000000000000000
-2.021945238113403 -8.848147392272949 1.111205220222473 1.000000000000000
-2.019796371459961 -8.994747161865234 1.226766586303711 0.000000000000000
-2.017463684082031 -9.133381843566895 1.244706511497498 0.000000000000000
-2.010274648666382 -9.736345291137695 0.533203303813934 1.000000000000000
-2.008724689483643 -4.963787078857422 0.112167611718178 0.000000000000000
-2.006652593612671 -8.333317756652832 0.913004457950592 0.000000000000000
-2.005962848663330 -8.686010360717773 1.321168065071106 0.000000000000000
-2.004112958908081 -12.201000213623047 1.404384851455688 1.000000000000000
-2.002368688583374 -4.015429019927979 0.390983253717422 0.000000000000000
-2.001943826675415 -12.628364562988281 0.932219028472900 0.000000000000000
-2.000785589218140 -8.691265106201172 1.321754455566406 1.000000000000000
-1.996174097061157 -3.494845628738403 0.161650881171227 0.000000000000000
-1.995823502540588 -4.422111511230469 0.486823529005051 0.000000000000000
-1.993927955627441 -4.641439437866211 0.407329857349396 0.000000000000000
-1.991039037704468 -4.616043090820312 0.298666924238205 0.000000000000000
-1.990130901336670 -12.230620384216309 1.517091631889343 1.000000000000000
-1.989622116088867 -4.666634082794189 0.389461010694504 0.000000000000000
-1.988491535186768 -4.517479419708252 0.447452217340469 0.000000000000000
-1.988441228866577 -3.817807197570801 0.409178316593170 0.000000000000000
-1.984055519104004 -10.144680976867676 1.375561594963074 1.000000000000000
-1.982097625732422 -11.721354484558105 0.317520737648010 1.000000000000000
-1.978322267532349 -9.644471168518066 2.047821760177612 1.000000000000000
-1.974767327308655 -4.458206653594971 1.306518673896790 1.000000000000000
-1.973540067672729 -4.926220417022705 0.111162364482880 0.000000000000000
-1.971895217895508 -11.185462951660156 0.478024840354919 1.000000000000000
-1.967382550239563 -8.483835220336914 0.735904514789581 1.000000000000000
-1.961854338645935 -11.721072196960449 0.614501357078552 0.000000000000000
-1.961427330970764 -9.929579734802246 1.500021219253540 1.000000000000000
-1.959744215011597 -8.914910316467285 0.665496766567230 1.000000000000000
-1.956822991371155 -9.749547004699707 0.017355544492602 1.000000000000000
-1.955929875373840 -11.546996116638184 0.110381364822388 1.000000000000000
-1.954825878143311 -11.593307495117188 1.179718375205994 1.000000000000000
-1.953831195831299 -4.084545135498047 0.042674764990807 0.000000000000000
-1.953611850738525 -4.052426338195801 0.768985569477081 1.000000000000000
-1.952696323394775 -9.936450958251953 0.660176217556000 1.000000000000000
-1.946973800659180 -3.767673730850220 0.243791818618774 0.000000000000000
-1.945384979248047 -11.114483833312988 1.281597137451172 1.000000000000000
-1.944334387779236 -2.666544198989868 0.564102470874786 0.000000000000000
-1.944302797317505 -3.800972938537598 1.143980145454407 0.000000000000000
-1.941382884979248 -3.761037588119507 0.251459062099457 0.000000000000000
-1.940839052200317 -12.821098327636719 0.147114157676697 0.000000000000000
-1.938621878623962 -5.226196765899658 0.331166803836823 0.000000000000000
-1.936574578285217 -8.261816978454590 0.806622564792633 1.000000000000000
-1.935882925987244 -11.837284088134766 0.781958758831024 1.000000000000000
-1.935665726661682 -4.531092166900635 0.216850772500038 0.000000000000000
-1.934006810188293 -8.417983055114746 0.679769694805145 0.000000000000000
-1.933429718017578 -9.862060546875000 0.210513204336166 1.000000000000000
-1.928720235824585 -9.255661010742188 2.533320903778076 1.000000000000000
-1.927513837814331 -3.246046781539917 0.785242676734924 0.000000000000000
-1.925924658775330 -3.948381185531616 0.362718433141708 0.000000000000000
-1.921459436416626 -8.837807655334473 1.203550457954407 1.000000000000000
-1.919719696044922 -11.933197975158691 0.951238155364990 1.000000000000000
-1.919160962104797 -12.391305923461914 1.858314037322998 0.000000000000000
-1.918041586875916 -8.980506896972656 1.222017884254456 1.000000000000000
-1.915866732597351 -8.715310096740723 0.808953106403351 1.000000000000000
-1.915530443191528 -6.272466659545898 0.623419702053070 0.000000000000000
-1.913258552551270 -3.714502811431885 0.119629487395287 0.000000000000000
-1.912458896636963 -9.577883720397949 0.505027174949646 0.000000000000000
-1.912383556365967 -11.309092521667480 1.960542559623718 0.000000000000000
-1.912360310554504 -9.262117385864258 0.653038442134857 1.000000000000000
-1.911961674690247 -9.239009857177734 0.633272826671600 1.000000000000000
-1.910549521446228 -8.710696220397949 0.684618592262268 1.000000000000000
-1.908890724182129 -3.817291975021362 0.015643002465367 0.000000000000000
-1.907104253768921 -8.718253135681152 0.702365875244141 1.000000000000000
-1.906951904296875 -5.043673515319824 0.413955450057983 0.000000000000000
-1.906624913215637 -8.542356491088867 0.831983327865601 1.000000000000000
-1.906016469001770 -3.688415527343750 0.709677338600159 0.000000000000000
-1.902836084365845 -9.682732582092285 0.036168027669191 1.000000000000000
-1.901390194892883 -11.328256607055664 0.926217198371887 1.000000000000000
-1.897139310836792 -11.115075111389160 0.952802658081055 1.000000000000000
-1.894853830337524 -3.733023166656494 0.870772182941437 0.000000000000000
-1.892632007598877 -2.503597736358643 0.536470234394073 0.000000000000000
-1.891634821891785 -11.146154403686523 0.933456957340240 0.000000000000000
-1.890751004219055 -9.491601943969727 0.519064486026764 1.000000000000000
-1.889424085617065 -9.228271484375000 2.524003505706787 0.000000000000000
-1.886843681335449 -5.187442779541016 0.943540573120117 0.000000000000000
-1.877421259880066 -6.071720600128174 0.604115247726440 0.000000000000000
-1.876991748809814 -8.633276939392090 0.610053598880768 1.000000000000000
-1.873444557189941 -2.554682493209839 0.276049464941025 0.000000000000000
-1.872757315635681 -2.662293195724487 0.080687388777733 0.000000000000000
-1.868911862373352 -11.184967994689941 1.509054899215698 0.000000000000000
-1.858815908432007 -2.915735960006714 0.591060757637024 1.000000000000000
-1.858351588249207 -3.899441957473755 1.157438755035400 0.000000000000000
-1.858254671096802 -9.428915023803711 0.756345748901367 1.000000000000000
-1.857079863548279 -2.727385520935059 0.884125888347626 0.000000000000000
-1.856186866760254 -12.068242073059082 0.490410506725311 0.000000000000000
-1.855054259300232 -11.267719268798828 1.216350555419922 1.000000000000000
-1.854179620742798 -2.826910734176636 0.905866742134094 0.000000000000000
-1.853136301040649 -3.947410345077515 0.745397090911865 0.000000000000000
-1.852284789085388 -4.899085044860840 0.160021826624870 0.000000000000000
-1.851900100708008 -9.377695083618164 2.561273574829102 0.000000000000000
-1.850080370903015 -4.099190711975098 1.205061554908752 0.000000000000000
-1.846373558044434 -4.015965938568115 1.184355974197388 0.000000000000000
-1.843059539794922 -11.168102264404297 1.135788321495056 1.000000000000000
-1.840023279190063 -9.193387985229492 1.064912915229797 1.000000000000000
-1.832963347434998 -9.897496223449707 0.210848301649094 1.000000000000000
-1.829181432723999 -9.342405319213867 0.620622873306274 1.000000000000000
-1.828546762466431 -2.893369197845459 0.711931586265564 0.000000000000000
-1.827638149261475 -12.453439712524414 0.796307682991028 0.000000000000000
-1.827627182006836 -11.940806388854980 0.624622583389282 1.000000000000000
-1.822407722473145 -12.038745880126953 0.699925899505615 1.000000000000000
-1.820453166961670 -9.589519500732422 1.039681196212769 1.000000000000000
-1.819701552391052 -2.857240676879883 0.704600512981415 0.000000000000000
-1.818469762802124 -2.964220762252808 0.594430565834045 0.000000000000000
-1.817368507385254 -9.221455574035645 1.001127362251282 1.000000000000000
-1.817020058631897 -3.880509376525879 1.148121356964111 0.000000000000000
-1.815712571144104 -9.436849594116211 0.589452624320984 1.000000000000000
-1.814550518989563 -2.661828517913818 0.306221306324005 0.000000000000000
-1.810343384742737 -11.523769378662109 0.401239216327667 0.000000000000000
-1.810093998908997 -3.146325349807739 0.271655529737473 0.000000000000000
-1.806839704513550 -8.095283508300781 1.725252985954285 1.000000000000000
-1.806420326232910 -4.493385314941406 0.297052770853043 0.000000000000000
-1.805948019027710 -4.146665573120117 0.394108384847641 0.000000000000000
-1.803316712379456 -12.026079177856445 0.980549335479736 1.000000000000000
-1.802528381347656 -9.280126571655273 0.707498490810394 0.000000000000000
-1.801261305809021 -12.527772903442383 0.947212100028992 0.000000000000000
-1.800862789154053 -9.665741920471191 0.394896835088730 1.000000000000000
-1.800430059432983 -3.454471588134766 0.665870070457458 0.000000000000000
-1.798832416534424 -2.622118949890137 0.852032303810120 0.000000000000000
-1.798038005828857 -12.471352577209473 0.894359409809113 0.000000000000000
-1.796579837799072 -9.714294433593750 0.644042611122131 1.000000000000000
-1.795310735702515 -4.989946842193604 0.906472921371460 0.000000000000000
-1.794237017631531 -12.281043052673340 0.641766607761383 0.000000000000000
-1.792395234107971 -11.088659286499023 0.840639591217041 1.000000000000000
-1.786759734153748 -9.012236595153809 1.361629843711853 0.000000000000000
-1.783091187477112 -8.529230117797852 1.489446163177490 1.000000000000000
-1.781423091888428 -11.916944503784180 0.252398073673248 1.000000000000000
-1.781329274177551 -6.049319744110107 0.571684300899506 0.000000000000000
-1.780134677886963 -4.889819622039795 0.049045819789171 0.000000000000000
-1.778702855110168 -11.557768821716309 0.379751861095428 0.000000000000000
-1.777472019195557 -3.299468517303467 0.779540657997131 0.000000000000000
-1.776773691177368 -11.773386955261230 0.891089916229248 0.000000000000000
-1.771486043930054 -2.766909599304199 0.349949717521667 0.000000000000000
-1.769742250442505 -10.804806709289551 0.397646695375443 0.000000000000000
-1.769634485244751 -3.312561511993408 0.781169831752777 0.000000000000000
-1.764265060424805 -9.443674087524414 0.570764601230621 1.000000000000000
-1.763806819915771 -9.546403884887695 0.483291745185852 1.000000000000000
-1.758199930191040 -2.540868997573853 0.642693400382996 0.000000000000000
-1.756248474121094 -13.318477630615234 0.901690542697906 0.000000000000000
-1.755858778953552 -8.281275749206543 2.268290281295776 0.000000000000000
-1.744421958923340 -11.397184371948242 1.411609768867493 0.000000000000000
-1.742993235588074 -11.519570350646973 0.826956689357758 0.000000000000000
-1.741577148437500 -3.667423725128174 0.022675201296806 0.000000000000000
-1.741213440895081 -12.376840591430664 2.136445522308350 0.000000000000000
-1.734503507614136 -12.193361282348633 1.040706992149353 0.000000000000000
-1.724897503852844 -11.753369331359863 0.934918642044067 0.000000000000000
-1.720836520195007 -4.135264873504639 0.390288800001144 0.000000000000000
-1.714532017707825 -9.257999420166016 0.486850321292877 1.000000000000000
-1.714399099349976 -11.939918518066406 0.368538826704025 1.000000000000000
-1.710869669914246 -11.466867446899414 1.542823910713196 1.000000000000000
-1.698085784912109 -2.608738660812378 0.142980903387070 0.000000000000000
-1.694356918334961 -9.258215904235840 2.521932840347290 1.000000000000000
-1.693173885345459 -11.914748191833496 0.784560978412628 0.000000000000000
-1.692538976669312 -12.957459449768066 1.078939199447632 1.000000000000000
-1.683256626129150 -12.164887428283691 0.611374020576477 1.000000000000000
-1.679341077804565 -8.998672485351562 0.918534934520721 1.000000000000000
-1.677472472190857 -13.018998146057129 0.375831186771393 1.000000000000000
-1.676409006118774 -11.347144126892090 0.637273609638214 1.000000000000000
-1.674226999282837 -3.704209327697754 0.845520675182343 0.000000000000000
-1.667062401771545 -5.910563945770264 0.616217136383057 0.000000000000000
-1.666214704513550 -2.754935264587402 0.428444951772690 0.000000000000000
-1.663901805877686 -11.088410377502441 0.277945250272751 1.000000000000000
-1.661194205284119 -12.935409545898438 0.248135268688202 1.000000000000000
-1.658210158348083 -11.268847465515137 3.051994323730469 1.000000000000000
-1.652093052864075 -11.459065437316895 1.715817928314209 0.000000000000000
-1.650410175323486 -11.006365776062012 0.382813543081284 1.000000000000000
-1.648708224296570 -2.732880115509033 0.663872182369232 0.000000000000000
-1.639812827110291 -11.246015548706055 0.784748256206512 1.000000000000000
-1.636860013008118 -8.838592529296875 1.100511193275452 1.000000000000000
-1.631091594696045 -11.313397407531738 0.635054707527161 1.000000000000000
-1.629450678825378 -11.403450965881348 0.329811036586761 1.000000000000000
-1.629303216934204 -12.900883674621582 0.347318351268768 1.000000000000000
