# This PCD file was generated using the MATLAB® pcwrite function
# from Computer Vision Toolbox®.
# .PCD v.7 - Point Cloud Data file format
VERSION .7
FIELDS x y z intensity
SIZE 8 8 8 8
TYPE F F F F
COUNT 1 1 1 1
WIDTH 649
HEIGHT 1
VIEWPOINT 0 0 0 1 0 0 0
POINTS 649
DATA ascii
8.604322433471680 -3.775958776473999 0.818773090839386 0.000000000000000
8.610477447509766 -6.883994102478027 2.293006181716919 0.000000000000000
8.617815017700195 -3.868661165237427 0.798212170600891 0.000000000000000
8.635851860046387 -2.321725130081177 1.015707373619080 0.000000000000000
8.637201309204102 -4.476717948913574 0.784439444541931 0.000000000000000
8.638170242309570 -7.815598011016846 1.323128342628479 0.000000000000000
8.651288032531738 -1.673963069915771 0.884189605712891 0.000000000000000
8.652338981628418 -7.171074390411377 0.927861452102661 0.000000000000000
8.653649330139160 -2.322299957275391 0.601394891738892 0.000000000000000
8.655337333679199 -7.350134372711182 0.915607988834381 0.000000000000000
8.660981178283691 -6.972073078155518 1.647795081138611 0.000000000000000
8.675581932067871 -2.555994987487793 1.203550457954407 0.000000000000000
8.679290771484375 -3.846494913101196 0.710483729839325 0.000000000000000
8.679767608642578 -2.754384517669678 0.628790557384491 0.000000000000000
8.682857513427734 -7.667905807495117 1.980087399482727 0.000000000000000
8.686720848083496 -4.029293537139893 0.834398567676544 0.000000000000000
8.690388679504395 -3.854316473007202 0.693128883838654 0.000000000000000
8.698186874389648 -8.429717063903809 0.813021600246429 0.000000000000000
8.705302238464355 -1.362902760505676 1.000810384750366 0.000000000000000
8.707454681396484 -7.059213161468506 1.065529108047485 0.000000000000000
8.722691535949707 -2.405250787734985 1.204077959060669 0.000000000000000
8.724775314331055 -3.809221506118774 1.266867280006409 0.000000000000000
8.730011940002441 -7.445074081420898 0.836524784564972 0.000000000000000
8.737169265747070 -3.097769498825073 0.693766474723816 0.000000000000000
8.740735054016113 -7.497539520263672 0.861834645271301 0.000000000000000
8.749143600463867 -1.458139896392822 0.732348978519440 0.000000000000000
8.749304771423340 -3.758816957473755 0.749441325664520 0.000000000000000
8.755764961242676 -3.117098808288574 1.236791849136353 0.000000000000000
8.767074584960938 -9.163327217102051 0.875677704811096 0.000000000000000
8.767240524291992 -4.095499038696289 0.612194657325745 0.000000000000000
8.768103599548340 -2.233169078826904 0.712094783782959 0.000000000000000
8.768372535705566 -3.926323652267456 0.793240904808044 0.000000000000000
8.772994041442871 -1.036644339561462 0.940966486930847 0.000000000000000
8.773780822753906 -3.865309000015259 1.275837302207947 0.000000000000000
8.779039382934570 -2.029382944107056 0.622177541255951 0.000000000000000
8.780616760253906 -10.411078453063965 1.150840044021606 0.000000000000000
8.781534194946289 -7.639592647552490 1.106409072875977 0.000000000000000
8.789144515991211 -1.885673284530640 0.957489490509033 0.000000000000000
8.790679931640625 -1.096183419227600 0.304710775613785 0.000000000000000
8.794918060302734 -11.557948112487793 3.891603231430054 0.000000000000000
8.796380043029785 -2.305882215499878 0.435205757617950 0.000000000000000
8.800092697143555 -3.417042016983032 0.724728167057037 0.000000000000000
8.800593376159668 -4.128869056701660 0.540084898471832 0.000000000000000
8.801584243774414 -3.133410930633545 0.789455413818359 0.000000000000000
8.802273750305176 -1.919045090675354 0.959607839584351 0.000000000000000
8.804312705993652 -9.844321250915527 0.988408207893372 0.000000000000000
8.805216789245605 -3.439739465713501 0.856984734535217 0.000000000000000
8.821619033813477 -8.841965675354004 0.669878125190735 0.000000000000000
8.824213981628418 -4.297756671905518 0.639879107475281 0.000000000000000
8.832090377807617 -1.419257283210754 0.952829182147980 0.000000000000000
8.838663101196289 -2.438225030899048 0.757034897804260 0.000000000000000
8.844545364379883 -3.140359163284302 0.850845396518707 0.000000000000000
8.856092453002930 -2.701158046722412 1.133565425872803 0.000000000000000
8.856416702270508 -3.768267631530762 0.608911454677582 0.000000000000000
8.857430458068848 -8.234290122985840 1.480634808540344 0.000000000000000
8.861360549926758 -1.252638578414917 0.342239260673523 0.000000000000000
8.867130279541016 -6.502600193023682 1.629616498947144 0.000000000000000
8.867944717407227 -3.414566516876221 0.747872173786163 0.000000000000000
8.869423866271973 -8.398547172546387 2.087920427322388 0.000000000000000
8.869959831237793 -1.375995874404907 0.377777516841888 0.000000000000000
8.872913360595703 -1.093858718872070 0.376263707876205 0.000000000000000
8.880824089050293 -1.786172151565552 0.677944779396057 0.000000000000000
8.885237693786621 -9.755165100097656 1.089471936225891 0.000000000000000
8.889604568481445 -3.262284755706787 1.159328341484070 0.000000000000000
8.892953872680664 -4.967660427093506 0.664079427719116 0.000000000000000
8.895585060119629 -1.886271715164185 1.891424655914307 0.000000000000000
8.900544166564941 -2.245903730392456 1.909345149993896 0.000000000000000
8.903693199157715 -6.160152912139893 1.850687384605408 0.000000000000000
8.904429435729980 -5.039525032043457 1.748919844627380 0.000000000000000
8.906129837036133 -5.092746734619141 1.256060481071472 0.000000000000000
8.908845901489258 -1.557886958122253 0.711780965328217 0.000000000000000
8.911333084106445 -7.777138710021973 0.976575016975403 0.000000000000000
8.913608551025391 -1.389777779579163 0.744856476783752 0.000000000000000
8.914131164550781 -6.504109382629395 1.468426465988159 0.000000000000000
8.921582221984863 -3.276140213012695 0.674592792987823 0.000000000000000
8.931035995483398 -7.629444122314453 0.992544829845428 0.000000000000000
8.931391716003418 -6.153994083404541 1.231940269470215 0.000000000000000
8.946806907653809 -4.939310073852539 1.251199603080750 0.000000000000000
8.947056770324707 -0.298680454492569 0.462889939546585 0.000000000000000
8.948442459106445 -2.203248023986816 0.476522564888000 0.000000000000000
8.952907562255859 -1.737350225448608 0.541823089122772 0.000000000000000
8.957522392272949 -1.705822587013245 0.682422578334808 0.000000000000000
8.960945129394531 -6.147639274597168 1.032976508140564 0.000000000000000
8.963893890380859 -2.631758451461792 1.143773317337036 0.000000000000000
8.968424797058105 -2.329749345779419 0.693467974662781 0.000000000000000
8.973223686218262 -3.956166505813599 0.809698164463043 0.000000000000000
8.987935066223145 -7.137040138244629 0.947610199451447 0.000000000000000
8.988358497619629 -6.601156234741211 0.791556179523468 0.000000000000000
8.994799613952637 -1.254372477531433 0.574563920497894 0.000000000000000
9.011105537414551 -4.732542037963867 0.922712147235870 0.000000000000000
9.012166976928711 -1.402889251708984 0.454055547714233 0.000000000000000
9.012625694274902 -1.027018189430237 0.556392371654510 0.000000000000000
9.018904685974121 -4.775667190551758 0.842612743377686 0.000000000000000
9.022085189819336 -3.141116142272949 0.659651458263397 0.000000000000000
9.022646903991699 -1.988050460815430 0.780698657035828 0.000000000000000
9.026700973510742 -1.117296099662781 0.768573880195618 0.000000000000000
9.027420043945312 -6.639064311981201 0.925228238105774 0.000000000000000
9.032169342041016 -5.161473274230957 0.879043817520142 0.000000000000000
9.038810729980469 -1.667413234710693 0.616932094097137 0.000000000000000
9.038980484008789 -8.727012634277344 1.094822525978088 0.000000000000000
9.047657966613770 -2.818204641342163 0.950883269309998 0.000000000000000
9.049653053283691 -8.454897880554199 1.835444331169128 0.000000000000000
9.051383972167969 -2.632411479949951 0.796528160572052 0.000000000000000
9.059689521789551 -3.720822572708130 0.714071094989777 0.000000000000000
9.068397521972656 -8.250449180603027 1.631467700004578 0.000000000000000
9.069569587707520 -1.705844879150391 0.761972010135651 0.000000000000000
9.070588111877441 -5.532582759857178 0.815663635730743 0.000000000000000
9.074493408203125 -6.567389011383057 1.660109519958496 0.000000000000000
9.088662147521973 -7.819137573242188 1.013089537620544 0.000000000000000
9.091136932373047 -8.548500061035156 2.133075714111328 0.000000000000000
9.091835975646973 -2.209290981292725 0.465789794921875 0.000000000000000
9.093817710876465 -0.520842850208282 0.453458935022354 0.000000000000000
9.100014686584473 -2.613168716430664 0.781720757484436 0.000000000000000
9.107473373413086 -7.579714775085449 1.262106776237488 0.000000000000000
9.110364913940430 -3.752417087554932 0.832565605640411 0.000000000000000
9.110375404357910 -8.748142242431641 0.920875310897827 0.000000000000000
9.110589027404785 -3.037931680679321 0.737281560897827 0.000000000000000
9.114504814147949 -2.888490438461304 0.531209230422974 0.000000000000000
9.116151809692383 -3.593153476715088 0.582151412963867 0.000000000000000
9.121183395385742 -10.646380424499512 1.716389179229736 0.000000000000000
9.125331878662109 -0.429701387882233 0.771941900253296 0.000000000000000
9.128788948059082 -2.461256265640259 0.744106113910675 0.000000000000000
9.131098747253418 -2.002924919128418 0.771846413612366 0.000000000000000
9.145450592041016 -8.735306739807129 1.068661212921143 0.000000000000000
9.146496772766113 -9.344008445739746 1.079597592353821 0.000000000000000
9.151237487792969 -4.765456676483154 0.935352087020874 0.000000000000000
9.165634155273438 -1.839960336685181 0.717685997486115 0.000000000000000
9.171787261962891 -9.927543640136719 1.142083406448364 0.000000000000000
9.176212310791016 -2.774306535720825 0.643452346324921 0.000000000000000
9.180576324462891 -4.730537414550781 2.767293214797974 0.000000000000000
9.182345390319824 -6.146812915802002 0.869640707969666 0.000000000000000
9.186573982238770 -9.280690193176270 1.598755002021790 0.000000000000000
9.188191413879395 -3.273936271667480 0.654703378677368 0.000000000000000
9.189130783081055 -5.340046405792236 0.713369548320770 0.000000000000000
9.191938400268555 -3.141548395156860 0.764505505561829 0.000000000000000
9.195299148559570 -3.110827207565308 0.974046349525452 0.000000000000000
9.202932357788086 -9.741357803344727 1.214874267578125 0.000000000000000
9.204355239868164 -5.931575298309326 1.166357755661011 0.000000000000000
9.206291198730469 -3.428911209106445 0.792155325412750 0.000000000000000
9.208950996398926 -0.713763952255249 0.762630343437195 0.000000000000000
9.213070869445801 -3.389019727706909 0.677837312221527 0.000000000000000
9.215394020080566 -2.130251646041870 0.507282197475433 0.000000000000000
9.220729827880859 -3.024133682250977 0.557828724384308 0.000000000000000
9.231469154357910 -6.434694290161133 1.923474788665771 0.000000000000000
9.231667518615723 -1.800474524497986 0.649456381797791 0.000000000000000
9.239167213439941 -3.074536561965942 0.822798430919647 0.000000000000000
9.239289283752441 -2.831965208053589 0.741874217987061 0.000000000000000
9.239613533020020 -0.949605941772461 0.605530142784119 0.000000000000000
9.242579460144043 -8.867031097412109 0.958555996417999 0.000000000000000
9.243187904357910 -0.563394486904144 0.603708624839783 0.000000000000000
9.247574806213379 -2.927819728851318 0.557599186897278 0.000000000000000
9.248687744140625 -2.685941934585571 1.427307128906250 0.000000000000000
9.254031181335449 -8.884222984313965 1.059190511703491 0.000000000000000
9.254849433898926 -6.076524734497070 1.892472743988037 0.000000000000000
9.260025978088379 -6.995176315307617 0.846123337745667 0.000000000000000
9.261086463928223 -8.000163078308105 2.545522212982178 0.000000000000000
9.264831542968750 -10.836994171142578 1.745554566383362 0.000000000000000
9.274001121520996 -7.465020179748535 2.476284027099609 0.000000000000000
9.276166915893555 -4.791477680206299 1.784639716148376 0.000000000000000
9.278864860534668 -5.016644001007080 1.198083400726318 0.000000000000000
9.283701896667480 -1.182023882865906 0.790802597999573 0.000000000000000
9.284836769104004 -5.369464874267578 2.873926639556885 0.000000000000000
9.294448852539062 -6.813475608825684 1.004195094108582 0.000000000000000
9.294565200805664 -8.936864852905273 1.089542746543884 0.000000000000000
9.304796218872070 -6.700466632843018 1.302362680435181 0.000000000000000
9.324648857116699 -0.970023989677429 0.998585283756256 0.000000000000000
9.327242851257324 -1.583278775215149 1.402091741561890 0.000000000000000
9.329276084899902 -6.635118484497070 3.067523479461670 0.000000000000000
9.330658912658691 -3.150813579559326 1.049001812934875 0.000000000000000
9.331405639648438 -7.736631870269775 1.484037399291992 0.000000000000000
9.332056999206543 -9.605752944946289 0.976430356502533 0.000000000000000
9.334937095642090 -2.532397747039795 0.876847445964813 0.000000000000000
9.336754798889160 -8.624159812927246 1.443658947944641 0.000000000000000
9.338351249694824 -6.142553329467773 1.487421631813049 0.000000000000000
9.340668678283691 -2.014746427536011 0.788962006568909 0.000000000000000
9.340979576110840 -1.004693865776062 1.000703692436218 0.000000000000000
9.346186637878418 -3.228919267654419 0.625580132007599 0.000000000000000
9.349124908447266 -3.133980751037598 0.737947821617126 0.000000000000000
9.352882385253906 -2.221616983413696 0.719439387321472 0.000000000000000
9.353527069091797 -5.019311428070068 0.835432529449463 0.000000000000000
9.364775657653809 -7.928427696228027 1.013110160827637 0.000000000000000
9.368394851684570 -0.933768987655640 0.631933450698853 0.000000000000000
9.369342803955078 -4.603383541107178 0.720822155475616 0.000000000000000
9.375103950500488 -2.487164974212646 0.632332742214203 0.000000000000000
9.376235961914062 -1.325421214103699 0.653865098953247 0.000000000000000
9.376258850097656 -2.950746297836304 0.773606777191162 0.000000000000000
9.379878997802734 -8.325210571289062 3.360506534576416 0.000000000000000
9.380272865295410 -4.662327289581299 0.662705779075623 0.000000000000000
9.382502555847168 -7.881787776947021 0.917061328887939 0.000000000000000
9.386373519897461 -3.001712322235107 0.858704805374146 0.000000000000000
9.389495849609375 -8.177137374877930 1.524382948875427 0.000000000000000
9.389991760253906 -2.695374727249146 0.825492858886719 0.000000000000000
9.398241043090820 -3.385798454284668 0.670508384704590 0.000000000000000
9.401060104370117 -10.082106590270996 1.138185501098633 0.000000000000000
9.405594825744629 -2.951501607894897 0.661668300628662 0.000000000000000
9.427313804626465 -7.449520111083984 0.829661905765533 0.000000000000000
9.428374290466309 -6.972556114196777 0.832337617874146 0.000000000000000
9.430988311767578 -4.378118991851807 0.617735207080841 0.000000000000000
9.433532714843750 -1.839844703674316 1.279003143310547 0.000000000000000
9.437183380126953 -8.750560760498047 0.938327133655548 0.000000000000000
9.438352584838867 -3.426327466964722 1.229325413703918 0.000000000000000
9.440788269042969 -11.555359840393066 3.998236894607544 0.000000000000000
9.445749282836914 -6.260542869567871 1.507999539375305 0.000000000000000
9.455109596252441 -8.953139305114746 0.949380040168762 0.000000000000000
9.455719947814941 -2.715313434600830 0.660328924655914 0.000000000000000
9.461214065551758 -8.960170745849609 1.595352292060852 0.000000000000000
9.462908744812012 -6.955266475677490 0.810924947261810 0.000000000000000
9.465787887573242 -9.734561920166016 1.016170859336853 0.000000000000000
9.465975761413574 -3.332753181457520 1.335460782051086 0.000000000000000
9.466945648193359 -4.447946071624756 1.391918420791626 0.000000000000000
9.467551231384277 -2.698868274688721 2.637883901596069 0.000000000000000
9.473326683044434 -5.972832679748535 0.859753549098969 0.000000000000000
9.475296020507812 -9.881436347961426 1.301346063613892 0.000000000000000
9.477048873901367 -0.954121530056000 0.602597594261169 0.000000000000000
9.480256080627441 -6.777439594268799 0.894658088684082 0.000000000000000
9.484350204467773 -7.641432762145996 0.888007760047913 0.000000000000000
9.485780715942383 -2.124843120574951 0.671224296092987 0.000000000000000
9.488383293151855 -6.303826808929443 1.213384866714478 0.000000000000000
9.488925933837891 -6.182920932769775 1.026720404624939 0.000000000000000
9.490701675415039 -4.636923789978027 0.668262004852295 0.000000000000000
9.491141319274902 -3.329702615737915 0.597571074962616 0.000000000000000
9.495838165283203 -4.367999076843262 2.174079418182373 0.000000000000000
9.500902175903320 -5.507922649383545 1.344529032707214 0.000000000000000
9.501191139221191 -2.948016643524170 1.129918098449707 0.000000000000000
9.504532814025879 -4.702387332916260 1.571562528610229 0.000000000000000
9.507022857666016 -2.302801370620728 0.524634361267090 0.000000000000000
9.508712768554688 -1.143272161483765 0.661304712295532 0.000000000000000
9.510037422180176 -6.208033561706543 0.784197211265564 0.000000000000000
9.510475158691406 -1.185940861701965 0.477126300334930 0.000000000000000
9.511281967163086 -6.311626911163330 0.920430421829224 0.000000000000000
9.513410568237305 -2.270976305007935 0.675357520580292 0.000000000000000
9.514037132263184 -9.000752449035645 1.244946837425232 0.000000000000000
9.514071464538574 -7.862057209014893 1.314641594886780 0.000000000000000
9.514763832092285 -2.547337532043457 0.718143165111542 0.000000000000000
9.520215034484863 -4.504657745361328 0.869602680206299 0.000000000000000
9.520257949829102 -7.695057868957520 1.390390634536743 0.000000000000000
9.522828102111816 -1.647958993911743 0.876125156879425 0.000000000000000
9.523026466369629 -2.590204715728760 1.313299775123596 0.000000000000000
9.523421287536621 -3.200174570083618 0.713108599185944 0.000000000000000
9.532074928283691 -2.056031942367554 2.028271913528442 0.000000000000000
9.534905433654785 -4.514053344726562 0.748792290687561 0.000000000000000
9.543094635009766 -2.984772443771362 1.709156274795532 0.000000000000000
9.543965339660645 -2.093487739562988 2.032344818115234 0.000000000000000
9.548109054565430 -4.373078823089600 0.846808791160583 0.000000000000000
9.549388885498047 -2.396691560745239 0.774862110614777 0.000000000000000
9.554837226867676 -9.203823089599609 1.506858468055725 0.000000000000000
9.554984092712402 -0.683568656444550 0.790936887264252 0.000000000000000
9.555817604064941 -9.987718582153320 1.168016791343689 0.000000000000000
9.557282447814941 -9.001917839050293 1.109413862228394 0.000000000000000
9.559360504150391 -7.272266864776611 0.991715729236603 0.000000000000000
9.565084457397461 -5.658802986145020 0.874662101268768 0.000000000000000
9.574439048767090 -2.609932661056519 0.800192534923553 0.000000000000000
9.574528694152832 -8.295471191406250 1.685814738273621 0.000000000000000
9.575356483459473 -6.451610088348389 0.886391282081604 0.000000000000000
9.575705528259277 -8.180160522460938 0.869615733623505 0.000000000000000
9.578531265258789 -5.212845802307129 0.921480357646942 0.000000000000000
9.581232070922852 -2.270381450653076 0.988024115562439 0.000000000000000
9.582324028015137 -10.114972114562988 1.484108805656433 0.000000000000000
9.583041191101074 -1.390841007232666 0.631291866302490 0.000000000000000
9.584088325500488 -11.342039108276367 1.817982316017151 0.000000000000000
9.587630271911621 -1.693663716316223 0.882625639438629 0.000000000000000
9.594896316528320 -10.147026062011719 2.904746294021606 0.000000000000000
9.597157478332520 -1.906555414199829 0.675633013248444 0.000000000000000
9.600796699523926 -4.827018260955811 0.804219841957092 0.000000000000000
9.606330871582031 -7.868850708007812 1.025288581848145 0.000000000000000
9.609310150146484 -7.051512718200684 1.459246754646301 0.000000000000000
9.610132217407227 -9.028303146362305 2.742647171020508 0.000000000000000
9.610185623168945 -8.310521125793457 1.555492758750916 0.000000000000000
9.613223075866699 -7.596426010131836 1.035318255424500 0.000000000000000
9.614497184753418 -2.928807735443115 0.955380260944366 0.000000000000000
9.624002456665039 -7.550522327423096 1.033634305000305 0.000000000000000
9.628805160522461 -6.494465827941895 1.237110376358032 0.000000000000000
9.629110336303711 -7.720444679260254 1.019034743309021 0.000000000000000
9.629250526428223 -4.344536781311035 0.920512080192566 0.000000000000000
9.632446289062500 -5.629198074340820 1.365917205810547 0.000000000000000
9.632782936096191 -7.559040069580078 1.499106168746948 0.000000000000000
9.652927398681641 -2.727500677108765 0.909349977970123 0.000000000000000
9.653182029724121 -4.525579452514648 1.822381258010864 0.000000000000000
9.654190063476562 -5.281573295593262 2.288933515548706 0.000000000000000
9.654349327087402 -8.894436836242676 0.931742370128632 0.000000000000000
9.664831161499023 -0.985467135906219 0.802127778530121 0.000000000000000
9.665512084960938 -6.176124095916748 1.302814126014709 0.000000000000000
9.666993141174316 -10.133264541625977 1.491734743118286 0.000000000000000
9.676899909973145 -1.549641847610474 0.790226340293884 0.000000000000000
9.680664062500000 -1.658050537109375 0.772979080677032 0.000000000000000
9.683526039123535 -2.876481294631958 0.880233168601990 0.000000000000000
9.684561729431152 -7.328628540039062 1.616166114807129 0.000000000000000
9.684923171997070 -3.879184007644653 1.184992074966431 0.000000000000000
9.685357093811035 -6.434690952301025 0.915146946907043 0.000000000000000
9.693866729736328 -4.831493377685547 1.029569864273071 0.000000000000000
9.697205543518066 -7.285102844238281 0.277359634637833 0.000000000000000
9.701492309570312 -2.362995862960815 0.785846412181854 0.000000000000000
9.702605247497559 -1.524419069290161 0.772979080677032 0.000000000000000
9.703566551208496 -6.242021083831787 1.412581920623779 0.000000000000000
9.706755638122559 -6.229712486267090 1.412095904350281 0.000000000000000
9.707806587219238 -1.615125656127930 1.309606313705444 0.000000000000000
9.710517883300781 -10.201325416564941 1.162871360778809 0.000000000000000
9.711552619934082 -3.147606134414673 0.744320869445801 0.000000000000000
9.712643623352051 -8.298898696899414 0.857490003108978 0.000000000000000
9.712776184082031 -1.412093400955200 0.507505834102631 0.000000000000000
9.714821815490723 -5.767780303955078 0.823726713657379 0.000000000000000
9.715353965759277 -3.157834768295288 0.705391764640808 0.000000000000000
9.718611717224121 -1.246362090110779 0.337024450302124 0.000000000000000
9.723567962646484 -7.292173862457275 1.101837515830994 0.000000000000000
9.730009078979492 -10.246840476989746 1.729999780654907 0.000000000000000
9.733685493469238 -7.786445140838623 1.130006432533264 0.000000000000000
9.734961509704590 -9.810694694519043 1.141147851943970 0.000000000000000
9.735440254211426 -1.577145814895630 1.207451343536377 0.000000000000000
9.737969398498535 -5.283324718475342 2.304410219192505 0.000000000000000
9.744476318359375 -11.074740409851074 1.246490836143494 0.000000000000000
9.745499610900879 -2.716959238052368 0.737631022930145 0.000000000000000
9.747135162353516 -5.421175479888916 2.319886922836304 0.000000000000000
9.749327659606934 -1.485239863395691 0.661936223506927 0.000000000000000
9.752052307128906 -10.069664001464844 1.592177867889404 0.000000000000000
9.754927635192871 -2.347533702850342 0.460879415273666 0.000000000000000
9.758918762207031 -1.423324465751648 0.339224487543106 0.000000000000000
9.761621475219727 -10.045810699462891 1.714930891990662 0.000000000000000
9.769505500793457 -8.543222427368164 0.821058154106140 0.000000000000000
9.780500411987305 -3.027196645736694 0.667462289333344 0.000000000000000
9.788827896118164 -5.387907505035400 0.706902980804443 0.000000000000000
9.804087638854980 -7.820618629455566 0.987015545368195 0.000000000000000
9.805414199829102 -5.505692005157471 0.979888737201691 0.000000000000000
9.811859130859375 -10.183926582336426 1.194960594177246 0.000000000000000
9.812297821044922 -4.610206604003906 0.916091561317444 0.000000000000000
9.826180458068848 -9.448020935058594 0.941257059574127 0.000000000000000
9.827332496643066 -7.387155055999756 1.015084981918335 0.000000000000000
9.838213920593262 -2.519070148468018 0.760038435459137 0.000000000000000
9.838512420654297 -7.997252941131592 1.071355700492859 0.000000000000000
9.838850975036621 -1.302123069763184 0.474978566169739 0.000000000000000
9.838999748229980 -4.416868686676025 1.435184955596924 0.000000000000000
9.840832710266113 -1.426502108573914 0.495025992393494 0.000000000000000
9.843806266784668 -5.716819286346436 0.961896181106567 0.000000000000000
9.848228454589844 -7.912236690521240 0.994233787059784 0.000000000000000
9.849506378173828 -8.359493255615234 0.667999148368835 0.000000000000000
9.850863456726074 -10.123146057128906 1.417339324951172 0.000000000000000
9.858610153198242 -6.002615928649902 1.535964608192444 0.000000000000000
9.862013816833496 -5.440082073211670 2.342694997787476 0.000000000000000
9.868990898132324 -5.432030677795410 0.886587858200073 0.000000000000000
9.870617866516113 -2.647778511047363 0.863551080226898 0.000000000000000
9.871787071228027 -1.465838074684143 1.328073859214783 0.000000000000000
9.875335693359375 -5.816553115844727 1.038999199867249 0.000000000000000
9.877845764160156 -10.229523658752441 1.064232945442200 0.000000000000000
9.882715225219727 -1.328819394111633 0.496418178081512 0.000000000000000
9.883025169372559 -7.357996463775635 2.106117486953735 0.000000000000000
9.895947456359863 -9.903549194335938 1.155959248542786 0.000000000000000
9.908381462097168 -6.517505645751953 0.818915724754333 0.000000000000000
9.922105789184570 -1.407178044319153 0.363965064287186 0.000000000000000
9.924129486083984 -9.418304443359375 1.675071358680725 0.000000000000000
9.924711227416992 -1.148679256439209 0.949702501296997 0.000000000000000
9.942602157592773 -6.415186882019043 1.187306165695190 0.000000000000000
9.947775840759277 -7.806221008300781 1.044049859046936 0.000000000000000
9.956478118896484 -1.682939648628235 1.496502757072449 0.000000000000000
9.959019660949707 -8.174319267272949 1.014005422592163 0.000000000000000
9.961932182312012 -6.268022060394287 0.949043154716492 0.000000000000000
9.967700958251953 -6.643106937408447 1.466538190841675 0.000000000000000
9.977193832397461 -2.672260999679565 0.900025367736816 0.000000000000000
9.977309226989746 -10.057033538818359 2.421529531478882 0.000000000000000
9.977455139160156 -2.664867401123047 1.530514240264893 0.000000000000000
9.979581832885742 -0.928940296173096 0.653410494327545 0.000000000000000
9.988243103027344 -7.184154987335205 1.637271761894226 0.000000000000000
9.993372917175293 -2.346868991851807 0.550555467605591 0.000000000000000
9.993727684020996 -2.349896907806396 0.530846536159515 0.000000000000000
9.994009971618652 -1.758976340293884 0.759441435337067 0.000000000000000
9.997083663940430 -2.503304243087769 1.170546412467957 0.000000000000000
10.003966331481934 -6.588387489318848 0.780917882919312 0.000000000000000
10.003969192504883 -5.738837718963623 3.090299606323242 0.000000000000000
10.004433631896973 -0.992579579353333 0.539201557636261 0.000000000000000
10.014819145202637 -1.084597349166870 0.462714850902557 0.000000000000000
10.015539169311523 -1.194635152816772 0.958786964416504 0.000000000000000
10.017472267150879 -3.715119123458862 0.968576908111572 0.000000000000000
10.018245697021484 -2.410901546478271 1.033950805664062 0.000000000000000
10.018871307373047 -7.862011432647705 0.854811191558838 0.000000000000000
10.030781745910645 -1.837735414505005 2.121132612228394 0.000000000000000
10.038898468017578 -8.172365188598633 1.470293045043945 0.000000000000000
10.039703369140625 -7.664278030395508 1.434630393981934 0.000000000000000
10.040616035461426 -1.362719655036926 0.797458350658417 0.000000000000000
10.068161010742188 -8.052278518676758 1.064456820487976 0.000000000000000
10.075300216674805 -0.978838324546814 1.078234910964966 0.000000000000000
10.082568168640137 -6.045291423797607 0.811751544475555 0.000000000000000
10.085059165954590 -1.298903942108154 0.486642658710480 0.000000000000000
10.087536811828613 -2.470644235610962 0.617023527622223 0.000000000000000
10.097274780273438 -1.400753617286682 0.350637435913086 0.000000000000000
10.098649024963379 -1.330946803092957 0.350362390279770 0.000000000000000
10.101516723632812 -5.229867935180664 1.392652273178101 0.000000000000000
10.103980064392090 -7.252960205078125 1.026934266090393 0.000000000000000
10.105396270751953 -7.647088527679443 0.289796471595764 0.000000000000000
10.117682456970215 -2.553028345108032 0.780935049057007 0.000000000000000
10.128643035888672 -6.593212127685547 1.148803114891052 0.000000000000000
10.134798049926758 -1.005513548851013 0.389471054077148 0.000000000000000
10.135897636413574 -6.597934246063232 0.905120432376862 0.000000000000000
10.138072967529297 -3.732495546340942 1.322655081748962 0.000000000000000
10.139781951904297 -6.779794692993164 1.385425090789795 0.000000000000000
10.145685195922852 -2.735426425933838 0.502895951271057 0.000000000000000
10.171536445617676 -1.129956483840942 1.090097665786743 0.000000000000000
10.173917770385742 -7.759431838989258 0.858829379081726 0.000000000000000
10.178759574890137 -5.585645675659180 0.981093704700470 0.000000000000000
10.193235397338867 -1.011670708656311 0.509942412376404 0.000000000000000
10.201519966125488 -2.625378847122192 0.544685721397400 0.000000000000000
10.207153320312500 -9.489056587219238 1.150692939758301 0.000000000000000
10.213490486145020 -2.331886053085327 0.642593979835510 0.000000000000000
10.228680610656738 -6.686069488525391 0.938135623931885 0.000000000000000
10.234587669372559 -4.383589267730713 1.481617450714111 0.000000000000000
10.239378929138184 -7.970565319061279 0.645980060100555 0.000000000000000
10.242518424987793 -5.833703041076660 1.027112364768982 0.000000000000000
10.250186920166016 -1.391162753105164 0.495056152343750 0.000000000000000
10.252067565917969 -2.591886997222900 1.807554244995117 0.000000000000000
10.259213447570801 -6.606037616729736 0.795490205287933 0.000000000000000
10.259609222412109 -6.683562278747559 1.499106168746948 0.000000000000000
10.264559745788574 -1.192733645439148 0.936796605587006 0.000000000000000
10.264668464660645 -2.482905387878418 0.957381546497345 0.000000000000000
10.271509170532227 -5.778726100921631 0.791055262088776 0.000000000000000
10.282709121704102 -7.961149692535400 1.477064371109009 0.000000000000000
10.284742355346680 -5.626533031463623 0.877357840538025 0.000000000000000
10.295412063598633 -5.931128501892090 1.003996014595032 0.000000000000000
10.295417785644531 -2.420835256576538 0.709887087345123 0.000000000000000
10.302172660827637 -5.471306324005127 1.428136944770813 0.000000000000000
10.303266525268555 -6.662421703338623 1.112310528755188 0.000000000000000
10.316295623779297 -4.373908519744873 1.491115093231201 0.000000000000000
10.316296577453613 -0.919252932071686 0.376160115003586 0.000000000000000
10.319034576416016 -5.239222049713135 0.665262460708618 0.000000000000000
10.324851036071777 -7.743104934692383 0.940944969654083 0.000000000000000
10.326673507690430 -7.701752662658691 1.714307427406311 0.000000000000000
10.335377693176270 -1.544263720512390 0.198827803134918 0.000000000000000
10.335846900939941 -2.421967506408691 0.773989021778107 0.000000000000000
10.339796066284180 -6.679391384124756 0.921240687370300 0.000000000000000
10.343667984008789 -1.316981434822083 0.719995558261871 0.000000000000000
10.344367027282715 -1.508711218833923 0.681514203548431 0.000000000000000
10.355864524841309 -7.891339778900146 0.648167788982391 0.000000000000000
10.361737251281738 -6.017609119415283 1.594532728195190 0.000000000000000
10.370200157165527 -7.463277816772461 1.564242482185364 0.000000000000000
10.378375053405762 -1.066276550292969 0.559552848339081 0.000000000000000
10.383007049560547 -3.427620172500610 0.691749691963196 0.000000000000000
10.393504142761230 -9.610683441162109 1.507834196090698 0.000000000000000
10.394844055175781 -9.273840904235840 1.582246541976929 0.000000000000000
10.401299476623535 -6.595264911651611 0.993087530136108 0.000000000000000
10.405679702758789 -9.895005226135254 0.908442318439484 0.000000000000000
10.407799720764160 -7.818943023681641 1.099983572959900 0.000000000000000
10.408604621887207 -3.514818429946899 0.695032894611359 0.000000000000000
10.411832809448242 -1.083121538162231 0.500983834266663 0.000000000000000
10.414639472961426 -3.308119773864746 0.733460664749146 0.000000000000000
10.415530204772949 -9.278594017028809 1.856243014335632 0.000000000000000
10.428269386291504 -7.638209342956543 0.593765377998352 0.000000000000000
10.453428268432617 -5.927759170532227 1.015447139739990 0.000000000000000
10.461336135864258 -3.231922864913940 1.871580123901367 0.000000000000000
10.474036216735840 -1.126562833786011 0.342101275920868 0.000000000000000
10.488815307617188 -6.897202968597412 0.818389475345612 0.000000000000000
10.492524147033691 -2.409277200698853 0.473800480365753 0.000000000000000
10.497822761535645 -5.919807910919189 0.762465238571167 0.000000000000000
10.502912521362305 -6.700374126434326 1.657849788665771 0.000000000000000
10.505526542663574 -3.278544902801514 0.823623776435852 0.000000000000000
10.518960952758789 -6.646728992462158 0.907204747200012 0.000000000000000
10.526154518127441 -6.767013549804688 1.665236711502075 0.000000000000000
10.528649330139160 -5.540799140930176 1.005343198776245 0.000000000000000
10.538154602050781 -10.120564460754395 1.788816690444946 0.000000000000000
10.540075302124023 -1.769288420677185 1.138395667076111 0.000000000000000
10.542622566223145 -9.780362129211426 1.760623455047607 0.000000000000000
10.547446250915527 -0.605576038360596 0.566622257232666 0.000000000000000
10.550377845764160 -4.826331138610840 0.778732717037201 0.000000000000000
10.552946090698242 -6.629093647003174 0.860522806644440 0.000000000000000
10.554204940795898 -5.214379310607910 2.448588609695435 0.000000000000000
10.558128356933594 -5.749786853790283 1.471885085105896 0.000000000000000
10.562839508056641 -6.646111965179443 1.417476177215576 0.000000000000000
10.572740554809570 -4.075653553009033 1.136986494064331 0.000000000000000
10.578132629394531 -5.335522174835205 1.576593041419983 0.000000000000000
10.580918312072754 -1.094924569129944 0.693484246730804 0.000000000000000
10.582706451416016 -0.879169166088104 0.835746347904205 0.000000000000000
10.586230278015137 -6.395097732543945 1.045085430145264 0.000000000000000
10.609826087951660 -6.359410762786865 0.806419432163239 0.000000000000000
10.616641998291016 -5.624069690704346 1.470912933349609 0.000000000000000
10.620394706726074 -5.358235359191895 0.982170462608337 0.000000000000000
10.621053695678711 -6.368155956268311 1.046432614326477 0.000000000000000
10.625026702880859 -1.428252100944519 0.574976921081543 0.000000000000000
10.628504753112793 -0.995145082473755 0.840140044689178 0.000000000000000
10.629365921020508 -5.882740497589111 0.815432548522949 0.000000000000000
10.634576797485352 -3.077959775924683 2.302781105041504 0.000000000000000
10.637704849243164 -5.468914985656738 0.964474797248840 0.000000000000000
10.653514862060547 -5.542088508605957 1.779735922813416 0.000000000000000
10.663781166076660 -4.068049907684326 3.058206081390381 0.000000000000000
10.664313316345215 -1.203356742858887 0.972910642623901 0.000000000000000
10.664509773254395 -1.725745439529419 0.891984522342682 0.000000000000000
10.668372154235840 -7.565374374389648 0.877849042415619 0.000000000000000
10.671442985534668 -9.926240921020508 1.655377388000488 0.000000000000000
10.704782485961914 -9.603503227233887 1.913755893707275 0.000000000000000
10.711982727050781 -4.929679870605469 0.973612666130066 0.000000000000000
10.729280471801758 -1.554906845092773 0.916091561317444 0.000000000000000
10.733324050903320 -5.540356159210205 0.997311174869537 0.000000000000000
10.746616363525391 -7.616352558135986 1.752825260162354 0.000000000000000
10.755819320678711 -7.664122581481934 1.090459346771240 0.000000000000000
10.769624710083008 -4.088415622711182 0.750992715358734 0.000000000000000
10.770172119140625 -4.671608924865723 0.923934400081635 0.000000000000000
10.798303604125977 -1.680544257164001 0.586116552352905 0.000000000000000
10.801623344421387 -3.426062107086182 0.738762438297272 0.000000000000000
10.826917648315430 -3.988036394119263 0.885778844356537 0.000000000000000
10.828670501708984 -4.067640781402588 0.754115343093872 0.000000000000000
10.828985214233398 -5.507172107696533 1.616693735122681 0.000000000000000
10.839483261108398 -6.128189563751221 1.183626770973206 0.000000000000000
10.855963706970215 -1.156718492507935 0.564514994621277 0.000000000000000
10.857543945312500 -7.614965915679932 1.155588150024414 0.000000000000000
10.861386299133301 -1.344387650489807 0.586973488330841 0.000000000000000
10.874980926513672 -9.400950431823730 1.186899065971375 0.000000000000000
10.879196166992188 -8.892475128173828 1.720277905464172 0.000000000000000
10.880265235900879 -5.057838916778564 1.468968510627747 0.000000000000000
10.886044502258301 -4.805403232574463 1.351568102836609 0.000000000000000
10.886095046997070 -6.007463932037354 1.026605129241943 0.000000000000000
10.888277053833008 -3.504440069198608 0.878124356269836 0.000000000000000
10.902564048767090 -5.499163150787354 0.843163549900055 0.000000000000000
10.904816627502441 -4.456390857696533 1.338025331497192 0.000000000000000
10.913135528564453 -3.673947811126709 0.973010540008545 0.000000000000000
10.926594734191895 -7.674210548400879 1.634725809097290 0.000000000000000
10.927518844604492 -3.480902671813965 0.902593553066254 0.000000000000000
10.928800582885742 -1.622791409492493 0.933605134487152 0.000000000000000
10.934322357177734 -4.697529315948486 1.267614364624023 0.000000000000000
10.934979438781738 -5.743913650512695 1.512230634689331 0.000000000000000
10.937033653259277 -7.477814197540283 1.017130136489868 0.000000000000000
10.938118934631348 -5.356635093688965 2.533303499221802 0.000000000000000
10.958331108093262 -4.556128025054932 0.819466829299927 0.000000000000000
10.961922645568848 -0.629373013973236 0.419888943433762 0.000000000000000
10.974510192871094 -1.436248540878296 0.593614459037781 0.000000000000000
10.979415893554688 -7.675880908966064 1.080211758613586 0.000000000000000
10.981834411621094 -1.672219157218933 0.724190115928650 0.000000000000000
10.994894027709961 -7.600172519683838 1.980872511863708 0.000000000000000
11.009855270385742 -1.430321455001831 2.309297561645508 0.000000000000000
11.013025283813477 -9.742132186889648 1.242449283599854 0.000000000000000
11.017330169677734 -5.443189620971680 1.168107628822327 0.000000000000000
11.018223762512207 -3.741899251937866 1.054889321327209 0.000000000000000
11.021080017089844 -1.263293266296387 1.181609749794006 0.000000000000000
11.025913238525391 -3.653305053710938 2.416005849838257 0.000000000000000
11.029110908508301 -5.401195526123047 1.167350530624390 0.000000000000000
11.029751777648926 -4.591694831848145 0.986449360847473 0.000000000000000
11.029798507690430 -4.424784660339355 0.751857936382294 0.000000000000000
11.031469345092773 -1.172303557395935 0.766011357307434 0.000000000000000
11.033069610595703 -7.450587272644043 1.335869312286377 0.000000000000000
11.037384033203125 -4.862544536590576 1.019151926040649 0.000000000000000
11.043540000915527 -5.521998405456543 1.643075823783875 0.000000000000000
11.046120643615723 -4.598508834838867 0.803110003471375 0.000000000000000
11.050762176513672 -0.881164729595184 0.701346814632416 0.000000000000000
11.054615974426270 -7.703778743743896 1.112512111663818 0.000000000000000
11.056892395019531 -4.262287616729736 3.175192117691040 0.000000000000000
11.060136795043945 -3.713124036788940 1.994240403175354 0.000000000000000
11.064178466796875 -0.882234513759613 0.531195819377899 0.000000000000000
11.065579414367676 -7.369225502014160 0.176359653472900 0.000000000000000
11.068370819091797 -4.558888912200928 1.592949867248535 0.000000000000000
11.072601318359375 -7.731826782226562 1.797147154808044 0.000000000000000
11.077863693237305 -7.779299259185791 1.227153062820435 0.000000000000000
11.078662872314453 -9.814680099487305 1.681108713150024 0.000000000000000
11.086157798767090 -4.547216415405273 0.896761834621429 0.000000000000000
11.101840019226074 -1.481696128845215 2.329661846160889 0.000000000000000
11.114922523498535 -9.752329826354980 1.049555301666260 0.000000000000000
11.129687309265137 -1.459717869758606 0.580419778823853 0.000000000000000
11.131619453430176 -2.564616918563843 1.692948102951050 0.000000000000000
11.132033348083496 -7.835920333862305 0.913745224475861 0.000000000000000
11.142751693725586 -7.451256752014160 1.029071092605591 0.000000000000000
11.147962570190430 -3.680145740509033 0.923934400081635 0.000000000000000
11.151608467102051 -1.559516191482544 0.517227470874786 0.000000000000000
11.158975601196289 -1.582594037055969 0.756498515605927 0.000000000000000
11.162227630615234 -0.719090163707733 0.772348880767822 0.000000000000000
11.164200782775879 -3.748060464859009 0.676969945430756 0.000000000000000
11.180912017822266 -7.010509967803955 0.962177991867065 0.000000000000000
11.183008193969727 -0.695541620254517 1.193472504615784 0.000000000000000
11.189930915832520 -4.505584239959717 0.995994627475739 0.000000000000000
11.192936897277832 -1.203886032104492 0.712206721305847 0.000000000000000
11.193967819213867 -7.206002235412598 1.022028923034668 0.000000000000000
11.195405006408691 -5.685650348663330 1.094128131866455 0.000000000000000
11.208482742309570 -6.720365524291992 1.739106655120850 0.000000000000000
11.210615158081055 -1.231326460838318 0.561453759670258 0.000000000000000
11.216214179992676 -7.556320667266846 1.090499520301819 0.000000000000000
11.218908309936523 -3.722902059555054 0.679495036602020 0.000000000000000
11.222009658813477 -4.602939128875732 1.152966856956482 0.000000000000000
11.225757598876953 -4.315460205078125 1.366013765335083 0.000000000000000
11.241869926452637 -4.584517955780029 1.025887966156006 0.000000000000000
11.244910240173340 -0.738804399967194 0.886901736259460 0.000000000000000
11.245231628417969 -6.261072635650635 0.739869117736816 0.000000000000000
11.251220703125000 -7.819509506225586 1.078341841697693 0.000000000000000
11.253347396850586 -5.566150665283203 0.915348887443542 0.000000000000000
11.258255958557129 -6.920166492462158 1.500989913940430 0.000000000000000
11.263462066650391 -8.466687202453613 1.725138783454895 0.000000000000000
11.264551162719727 -3.544999361038208 1.257870078086853 0.000000000000000
11.271856307983398 -9.293783187866211 1.008765339851379 0.000000000000000
11.272426605224609 -4.646618843078613 0.818379223346710 0.000000000000000
11.281201362609863 -5.113107204437256 1.022655367851257 0.000000000000000
11.297013282775879 -6.285770893096924 1.067419171333313 0.000000000000000
11.303549766540527 -6.628571510314941 1.488350033760071 0.000000000000000
11.309123039245605 -4.281934738159180 2.067027807235718 0.000000000000000
11.312346458435059 -4.732520580291748 0.728519558906555 0.000000000000000
11.325484275817871 -6.932653903961182 0.993781685829163 0.000000000000000
11.330238342285156 -0.941271126270294 0.719278216362000 0.000000000000000
11.337397575378418 -7.710962772369385 1.375805497169495 0.000000000000000
11.340901374816895 -7.778076648712158 1.198297739028931 0.000000000000000
11.341155052185059 -6.808528900146484 0.862366497516632 0.000000000000000
11.355870246887207 -6.614315509796143 0.831412911415100 0.000000000000000
11.359583854675293 -5.347351551055908 1.012377023696899 0.000000000000000
11.367050170898438 -6.716564655303955 1.499635696411133 0.000000000000000
11.374489784240723 -0.812540054321289 1.517497181892395 0.000000000000000
11.381191253662109 -4.740096569061279 0.756223380565643 0.000000000000000
11.393203735351562 -7.026151180267334 2.784190177917480 0.000000000000000
11.398992538452148 -6.690155982971191 1.407848596572876 0.000000000000000
11.406734466552734 -1.226881623268127 0.902907311916351 0.000000000000000
11.410475730895996 -4.949343681335449 1.324809551239014 0.000000000000000
11.419317245483398 -2.923910856246948 2.451846837997437 0.000000000000000
11.421028137207031 -3.919647216796875 0.996981978416443 0.000000000000000
11.422329902648926 -4.132796287536621 1.218855857849121 0.000000000000000
11.426890373229980 -8.561477661132812 2.969911575317383 0.000000000000000
11.432077407836914 -5.328921318054199 1.041416645050049 0.000000000000000
11.441357612609863 -3.784088373184204 3.229026556015015 0.000000000000000
11.442025184631348 -7.840678691864014 3.716641664505005 0.000000000000000
11.447987556457520 -3.748857021331787 2.505608320236206 0.000000000000000
11.466621398925781 -6.625328063964844 1.042250752449036 0.000000000000000
11.467050552368164 -4.160524368286133 1.007185578346252 0.000000000000000
11.476930618286133 -6.844067096710205 1.051665782928467 0.000000000000000
11.479837417602539 -4.287796497344971 1.229638695716858 0.000000000000000
11.483255386352539 -4.636272907257080 1.046432614326477 0.000000000000000
11.492547035217285 -8.951859474182129 1.938555121421814 0.000000000000000
11.492720603942871 -7.009130954742432 1.528978228569031 0.000000000000000
11.494795799255371 -6.568751811981201 1.761795163154602 0.000000000000000
11.495517730712891 -4.873875617980957 0.669663906097412 0.000000000000000
11.504848480224609 -7.594984531402588 3.693865537643433 0.000000000000000
11.518098831176758 -8.971762657165527 1.233692407608032 0.000000000000000
11.550212860107422 -4.393974304199219 0.805638730525970 0.000000000000000
11.550518035888672 -7.407330989837646 1.026917576789856 0.000000000000000
11.551131248474121 -3.890078783035278 0.818111360073090 0.000000000000000
11.567422866821289 -8.263761520385742 0.954195380210876 0.000000000000000
11.573691368103027 -5.978231906890869 0.748821914196014 0.000000000000000
11.575912475585938 -8.736385345458984 1.378563761711121 0.000000000000000
11.578381538391113 -1.695088624954224 1.246430993080139 0.000000000000000
11.595851898193359 -2.270392179489136 1.342088103294373 0.000000000000000
11.605142593383789 -3.026373863220215 1.013426303863525 0.000000000000000
11.618047714233398 -3.854002475738525 1.498620152473450 0.000000000000000
11.628186225891113 -7.986453056335449 1.727083206176758 0.000000000000000
11.636628150939941 -1.440756916999817 0.583728909492493 0.000000000000000
11.638574600219727 -7.567133903503418 1.392978191375732 0.000000000000000
11.643851280212402 -6.497398853302002 0.894993424415588 0.000000000000000
11.644281387329102 -7.972706794738770 1.503173828125000 0.000000000000000
11.648445129394531 -0.587231159210205 0.625533759593964 0.000000000000000
11.651102066040039 -6.746302127838135 1.279770374298096 0.000000000000000
11.683163642883301 -4.971004486083984 0.999255180358887 0.000000000000000
11.690460205078125 -8.218630790710449 0.711413383483887 0.000000000000000
11.692475318908691 -0.753249645233154 1.559180855751038 0.000000000000000
11.697202682495117 -4.009866237640381 0.925419986248016 0.000000000000000
11.714646339416504 -7.960966587066650 0.896067142486572 0.000000000000000
11.716206550598145 -5.018183231353760 0.880086421966553 0.000000000000000
11.718716621398926 -7.894855022430420 0.921176075935364 0.000000000000000
11.720456123352051 -5.979343891143799 1.401493430137634 0.000000000000000
11.729175567626953 -4.750566482543945 0.800601124763489 0.000000000000000
11.733970642089844 -1.499409794807434 0.794001996517181 0.000000000000000
11.737855911254883 -6.160420894622803 1.260087609291077 0.000000000000000
11.748308181762695 -0.433254629373550 0.607891559600830 0.000000000000000
11.748886108398438 -0.798074722290039 0.813129305839539 0.000000000000000
11.754986763000488 -4.746459484100342 0.826456248760223 0.000000000000000
11.759719848632812 -3.836627960205078 0.973520576953888 0.000000000000000
