# This PCD file was generated using the MATLAB® pcwrite function
# from Computer Vision Toolbox®.
# .PCD v.7 - Point Cloud Data file format
VERSION .7
FIELDS x y z intensity
SIZE 8 8 8 8
TYPE F F F F
COUNT 1 1 1 1
WIDTH 641
HEIGHT 1
VIEWPOINT 0 0 0 1 0 0 0
POINTS 641
DATA ascii
-1.594310998916626 -4.270540237426758 0.948156058788300 0.000000000000000
-1.594106197357178 -3.015577554702759 0.709487915039062 0.000000000000000
-1.591832995414734 -12.854990959167480 0.619919657707214 0.000000000000000
-1.586139202117920 -10.250571250915527 1.380310297012329 0.000000000000000
-1.581549048423767 -8.886849403381348 0.414626270532608 0.000000000000000
-1.576265454292297 -11.028502464294434 0.276160985231400 0.000000000000000
-1.574108004570007 -10.370349884033203 0.805253505706787 0.000000000000000
-1.572720646858215 -5.554917335510254 0.465519815683365 0.000000000000000
-1.570970773696899 -7.316709995269775 1.279171466827393 0.000000000000000
-1.568773865699768 -3.487586975097656 0.300969123840332 0.000000000000000
-1.567130804061890 -14.185816764831543 2.115159034729004 0.000000000000000
-1.563182234764099 -4.472755908966064 0.412858873605728 0.000000000000000
-1.561116218566895 -14.578841209411621 3.049739122390747 0.000000000000000
-1.559989571571350 -9.633797645568848 0.636236011981964 0.000000000000000
-1.556767344474792 -10.133304595947266 0.569596588611603 0.000000000000000
-1.552278399467468 -9.380615234375000 1.265284419059753 0.000000000000000
-1.547590732574463 -8.686372756958008 1.835219502449036 0.000000000000000
-1.544849395751953 -11.280610084533691 0.566823661327362 0.000000000000000
-1.541287660598755 -3.458702087402344 0.403331845998764 0.000000000000000
-1.540850043296814 -13.724030494689941 1.837775588035583 0.000000000000000
-1.539362788200378 -13.185397148132324 1.044761419296265 0.000000000000000
-1.538840174674988 -10.512398719787598 0.963159799575806 0.000000000000000
-1.537666559219360 -9.498046875000000 0.813031256198883 0.000000000000000
-1.537144303321838 -7.821879863739014 0.090437546372414 0.000000000000000
-1.534858584403992 -2.698439359664917 0.311503142118454 0.000000000000000
-1.532349944114685 -10.981108665466309 0.104500390589237 0.000000000000000
-1.530042409896851 -11.100421905517578 0.385426163673401 0.000000000000000
-1.520999789237976 -13.987405776977539 1.188898324966431 0.000000000000000
-1.520880103111267 -8.722345352172852 0.679719686508179 0.000000000000000
-1.519300103187561 -11.234027862548828 0.848401188850403 0.000000000000000
-1.515475153923035 -3.782447576522827 0.101007923483849 0.000000000000000
-1.509975671768188 -4.638412475585938 0.139663130044937 0.000000000000000
-1.509634733200073 -10.138727188110352 0.175343990325928 0.000000000000000
-1.509536743164062 -4.288713932037354 0.349045276641846 0.000000000000000
-1.509009480476379 -13.758696556091309 1.089326143264771 0.000000000000000
-1.506527900695801 -4.011879444122314 0.353831529617310 0.000000000000000
-1.504970431327820 -3.618663311004639 0.082094289362431 0.000000000000000
-1.504960894584656 -5.005502700805664 0.370997697114944 0.000000000000000
-1.494673609733582 -5.293346405029297 0.358582079410553 0.000000000000000
-1.491540074348450 -11.076806068420410 1.190506935119629 0.000000000000000
-1.491114735603333 -11.056138038635254 0.512455284595490 0.000000000000000
-1.487771272659302 -13.141612052917480 0.836716592311859 0.000000000000000
-1.486811399459839 -7.060924530029297 0.724045097827911 0.000000000000000
-1.486544370651245 -3.779227733612061 0.844706058502197 0.000000000000000
-1.482384085655212 -11.649248123168945 0.336221814155579 0.000000000000000
-1.473639011383057 -3.240947484970093 0.163537845015526 0.000000000000000
-1.471903681755066 -10.462542533874512 0.688800275325775 0.000000000000000
-1.471652030944824 -7.111963748931885 0.557553887367249 0.000000000000000
-1.467660069465637 -3.769796371459961 0.841447710990906 0.000000000000000
-1.466703176498413 -4.463366031646729 0.360680103302002 0.000000000000000
-1.465468168258667 -10.813257217407227 0.291461199522018 0.000000000000000
-1.464282989501953 -9.603892326354980 0.315486162900925 0.000000000000000
-1.462538123130798 -11.043549537658691 0.790706574916840 0.000000000000000
-1.460098147392273 -14.763876914978027 0.054376658052206 0.000000000000000
-1.458790183067322 -12.841494560241699 3.462999105453491 0.000000000000000
-1.458279132843018 -3.990978717803955 0.883805274963379 0.000000000000000
-1.456448197364807 -12.727791786193848 0.736425757408142 0.000000000000000
-1.454329252243042 -11.744566917419434 0.202435761690140 0.000000000000000
-1.453281402587891 -10.175646781921387 0.432610750198364 0.000000000000000
-1.451317548751831 -11.052167892456055 0.683735668659210 0.000000000000000
-1.450530052185059 -13.665494918823242 1.463772654533386 0.000000000000000
-1.449778079986572 -8.366332054138184 0.651857316493988 0.000000000000000
-1.447861313819885 -14.005892753601074 1.338440895080566 0.000000000000000
-1.447363972663879 -14.793264389038086 0.054479286074638 0.000000000000000
-1.444533467292786 -9.108081817626953 0.334929138422012 0.000000000000000
-1.441825747489929 -9.626788139343262 0.709708094596863 0.000000000000000
-1.439968943595886 -4.572005748748779 0.997030138969421 0.000000000000000
-1.439670443534851 -14.528822898864746 0.025481794029474 0.000000000000000
-1.439535856246948 -5.511084556579590 0.009941389784217 0.000000000000000
-1.437461972236633 -3.185403585433960 0.254796832799911 0.000000000000000
-1.436305880546570 -12.175334930419922 0.704746603965759 0.000000000000000
-1.436106801033020 -11.235459327697754 0.454934030771255 0.000000000000000
-1.432911872863770 -10.268516540527344 0.576031446456909 0.000000000000000
-1.431908488273621 -12.912213325500488 0.346997946500778 0.000000000000000
-1.430523037910461 -9.044227600097656 0.455845534801483 0.000000000000000
-1.428598999977112 -5.003867149353027 0.209006384015083 0.000000000000000
-1.426855683326721 -14.786006927490234 0.197051674127579 0.000000000000000
-1.425398468971252 -3.015726327896118 0.570168077945709 0.000000000000000
-1.424169778823853 -9.374834060668945 0.326161563396454 0.000000000000000
-1.422618865966797 -2.743455648422241 0.100358359515667 0.000000000000000
-1.420940637588501 -6.023211956024170 0.539251327514648 0.000000000000000
-1.417266964912415 -14.246999740600586 0.437433689832687 0.000000000000000
-1.417248129844666 -4.445647716522217 0.133595794439316 0.000000000000000
-1.416966557502747 -11.705760002136230 0.700526952743530 0.000000000000000
-1.412290692329407 -3.362663269042969 0.076397955417633 0.000000000000000
-1.407627105712891 -13.717327117919922 1.085246324539185 0.000000000000000
-1.396450638771057 -10.651632308959961 0.845475316047668 0.000000000000000
-1.395016908645630 -12.719346046447754 1.362939715385437 0.000000000000000
-1.392306804656982 -10.877702713012695 0.955582559108734 0.000000000000000
-1.384770750999451 -12.231800079345703 0.968813002109528 0.000000000000000
-1.380061268806458 -10.617189407348633 0.739283561706543 0.000000000000000
-1.376530289649963 -10.887193679809570 0.757745027542114 0.000000000000000
-1.375801682472229 -11.322623252868652 0.480043202638626 0.000000000000000
-1.375352382659912 -10.580963134765625 0.901609241962433 0.000000000000000
-1.370293021202087 -4.006406784057617 0.121232174336910 0.000000000000000
-1.370181202888489 -4.500196456909180 0.333897918462753 0.000000000000000
-1.366947054862976 -3.085563182830811 0.187498673796654 0.000000000000000
-1.365783929824829 -8.934826850891113 0.906953394412994 0.000000000000000
-1.359967708587646 -9.357679367065430 0.016503825783730 0.000000000000000
-1.355980396270752 -10.326149940490723 0.158154264092445 0.000000000000000
-1.352879047393799 9.043652534484863 1.902014017105103 0.000000000000000
-1.352782607078552 -4.743326187133789 0.843120872974396 0.000000000000000
-1.350271821022034 -11.446038246154785 0.840306043624878 0.000000000000000
-1.347729682922363 -10.817143440246582 0.647625625133514 0.000000000000000
-1.344566941261292 -3.544069051742554 0.203298479318619 0.000000000000000
-1.341886997222900 -10.189902305603027 0.610618472099304 0.000000000000000
-1.340582251548767 -9.626501083374023 0.409062743186951 0.000000000000000
-1.339316487312317 3.238348722457886 0.938995540142059 0.000000000000000
-1.335751295089722 -13.480093955993652 1.066102266311646 0.000000000000000
-1.335720419883728 3.198001861572266 0.928642749786377 0.000000000000000
-1.334321141242981 -5.182191848754883 0.091537363827229 0.000000000000000
-1.332438230514526 -12.080688476562500 1.059057712554932 0.000000000000000
-1.328307509422302 -3.808172941207886 0.429599285125732 0.000000000000000
-1.324466228485107 -7.941092014312744 0.385298609733582 0.000000000000000
-1.321557879447937 -13.284889221191406 0.202733844518661 0.000000000000000
-1.318914413452148 -10.350204467773438 0.459203034639359 0.000000000000000
-1.317780375480652 9.013216018676758 1.894683122634888 0.000000000000000
-1.313654184341431 -11.179234504699707 0.668738722801208 0.000000000000000
-1.310059428215027 -5.554062843322754 0.251145899295807 0.000000000000000
-1.309171557426453 -10.878904342651367 0.482242345809937 0.000000000000000
-1.307375788688660 -12.157117843627930 0.138719305396080 0.000000000000000
-1.307322502136230 9.165084838867188 1.925636529922485 0.000000000000000
-1.305951952934265 -5.900026321411133 1.619172096252441 0.000000000000000
-1.301198840141296 -3.598054885864258 0.795832037925720 0.000000000000000
-1.294703125953674 -7.599084377288818 0.487684786319733 0.000000000000000
-1.292659640312195 -9.584657669067383 0.970452070236206 0.000000000000000
-1.291668653488159 -14.527279853820801 0.894586801528931 0.000000000000000
-1.288491010665894 -7.601075649261475 0.472884535789490 0.000000000000000
-1.287118077278137 -4.905505657196045 0.067275583744049 0.000000000000000
-1.284159421920776 -12.098112106323242 0.582250237464905 0.000000000000000
-1.282114744186401 -12.314288139343262 0.878783106803894 0.000000000000000
-1.279141545295715 -10.920070648193359 0.166960850358009 0.000000000000000
-1.265858769416809 -10.704792022705078 0.598886311054230 0.000000000000000
-1.265103220939636 -10.116549491882324 0.115667477250099 0.000000000000000
-1.264544248580933 -10.478758811950684 0.160279989242554 0.000000000000000
-1.264522075653076 -4.551082611083984 0.807401180267334 0.000000000000000
-1.263251900672913 -9.207619667053223 0.337542355060577 0.000000000000000
-1.259438037872314 -10.454863548278809 0.341971397399902 0.000000000000000
-1.258033514022827 4.013404369354248 0.225577771663666 1.000000000000000
-1.253597855567932 -3.804111480712891 0.426633626222610 0.000000000000000
-1.252998471260071 -14.887285232543945 0.916382074356079 0.000000000000000
-1.251257896423340 -11.892939567565918 1.591366887092590 0.000000000000000
-1.250608563423157 -3.215768814086914 0.105418957769871 0.000000000000000
-1.250318288803101 -4.133691787719727 0.339884847402573 0.000000000000000
-1.243064284324646 -10.889956474304199 0.651184022426605 0.000000000000000
-1.242088198661804 -14.860080718994141 0.054655212908983 0.000000000000000
-1.242047548294067 -8.696620941162109 0.234642803668976 0.000000000000000
-1.239575386047363 -11.678083419799805 0.924248218536377 0.000000000000000
-1.238128185272217 -13.840228080749512 0.825544834136963 0.000000000000000
-1.236374139785767 -9.491023063659668 0.494905978441238 0.000000000000000
-1.233314275741577 -14.571251869201660 0.502992808818817 0.000000000000000
-1.232622385025024 -7.869565010070801 1.656829476356506 0.000000000000000
-1.228806853294373 -8.662221908569336 0.351393997669220 0.000000000000000
-1.226033687591553 -12.372849464416504 0.403770357370377 0.000000000000000
-1.226014256477356 -13.788870811462402 1.062750935554504 0.000000000000000
-1.223676800727844 -4.508231639862061 0.394727706909180 0.000000000000000
-1.223341822624207 -11.525146484375000 0.376376301050186 0.000000000000000
-1.223016738891602 -9.510262489318848 0.256109893321991 0.000000000000000
-1.213051915168762 -14.783072471618652 3.974425554275513 0.000000000000000
-1.211953282356262 -10.591168403625488 0.966410100460052 0.000000000000000
-1.210980176925659 -14.171986579895020 0.352586030960083 0.000000000000000
-1.209978938102722 -4.699275493621826 0.516874849796295 0.000000000000000
-1.208515286445618 -9.157351493835449 0.530970335006714 1.000000000000000
-1.204635858535767 -9.267593383789062 0.213712319731712 0.000000000000000
-1.203272581100464 -8.555224418640137 0.596552014350891 0.000000000000000
-1.198383212089539 -4.693230152130127 0.343810111284256 0.000000000000000
-1.196945428848267 -9.635704040527344 0.446012318134308 0.000000000000000
-1.196510314941406 -14.748868942260742 0.281539559364319 0.000000000000000
-1.196383833885193 -13.373595237731934 0.590931534767151 0.000000000000000
-1.195903062820435 -4.614911079406738 0.347582459449768 0.000000000000000
-1.194694995880127 -10.228497505187988 0.453223407268524 0.000000000000000
-1.189514160156250 -10.188771247863770 1.092639684677124 0.000000000000000
-1.186921954154968 -10.571667671203613 0.898914873600006 0.000000000000000
-1.185354590415955 -7.646329879760742 0.400097161531448 0.000000000000000
-1.181966304779053 -11.518261909484863 0.554141640663147 0.000000000000000
-1.177677750587463 -9.259892463684082 0.321073859930038 0.000000000000000
-1.172966361045837 -3.463787794113159 0.331526339054108 0.000000000000000
-1.169867038726807 -9.096966743469238 0.386019319295883 0.000000000000000
-1.167702436447144 -8.848098754882812 0.238380864262581 0.000000000000000
-1.163084745407104 -3.648383855819702 0.286581665277481 0.000000000000000
-1.162205576896667 -9.037390708923340 0.664333343505859 0.000000000000000
-1.157985806465149 -11.284572601318359 1.208300948143005 0.000000000000000
-1.157240509986877 -5.047917366027832 0.307681500911713 0.000000000000000
-1.157185196876526 -5.129828453063965 0.312426000833511 0.000000000000000
-1.157181859016418 -7.222918033599854 0.695338189601898 0.000000000000000
-1.150250196456909 -4.341553688049316 0.076828442513943 0.000000000000000
-1.149973511695862 -6.190232276916504 0.548626601696014 0.000000000000000
-1.149126529693604 -8.750903129577637 0.677576422691345 0.000000000000000
-1.147652268409729 -11.960396766662598 0.551917314529419 0.000000000000000
-1.147083640098572 -10.149710655212402 1.160163640975952 0.000000000000000
-1.144575476646423 -3.590323686599731 0.165847748517990 0.000000000000000
-1.143592715263367 -9.762885093688965 0.451518625020981 0.000000000000000
-1.143390297889709 -9.474804878234863 0.291581749916077 0.000000000000000
-1.143173813819885 -4.376499176025391 0.077375754714012 0.000000000000000
-1.143133282661438 -10.730245590209961 0.329693824052811 0.000000000000000
-1.138733267784119 -5.482350826263428 0.311092466115952 0.000000000000000
-1.138361334800720 -6.499747276306152 0.265030354261398 0.000000000000000
-1.138324141502380 -5.332963466644287 0.344990909099579 0.000000000000000
-1.135052919387817 -10.043259620666504 0.814981162548065 0.000000000000000
-1.133611321449280 -9.410348892211914 1.009600639343262 0.000000000000000
-1.132149934768677 -3.382070064544678 0.260032385587692 0.000000000000000
-1.130195498466492 -8.860589027404785 0.702993512153625 0.000000000000000
-1.129964232444763 -8.355195999145508 0.111843004822731 0.000000000000000
-1.129315257072449 -7.063184261322021 0.623281478881836 0.000000000000000
-1.128990411758423 -4.693920612335205 0.045502152293921 0.000000000000000
-1.127539277076721 -6.232889175415039 0.157013297080994 0.000000000000000
-1.125920176506042 -10.284030914306641 1.175060749053955 0.000000000000000
-1.125531792640686 -7.260432720184326 0.266839951276779 0.000000000000000
-1.124591946601868 -10.140990257263184 0.586523592472076 0.000000000000000
-1.122422814369202 -8.728037834167480 0.797757804393768 0.000000000000000
-1.118992447853088 -3.281010389328003 0.099252402782440 0.000000000000000
-1.117959260940552 -9.097167015075684 0.209597185254097 0.000000000000000
-1.116957783699036 -10.131870269775391 0.468221157789230 0.000000000000000
-1.116915941238403 -10.097522735595703 0.134763404726982 0.000000000000000
-1.116668343544006 4.039716243743896 0.716416895389557 1.000000000000000
-1.111009120941162 -3.844647407531738 0.684066951274872 0.000000000000000
-1.101382970809937 -3.239739418029785 0.455354660749435 0.000000000000000
-1.096658706665039 -7.599018573760986 0.396998852491379 0.000000000000000
-1.093911647796631 -5.038678646087646 0.405790477991104 0.000000000000000
-1.092309832572937 -14.096139907836914 1.085408210754395 0.000000000000000
-1.089919328689575 -4.662264823913574 0.017548898234963 0.000000000000000
-1.089813709259033 -6.637659549713135 0.996886670589447 0.000000000000000
-1.087643265724182 -5.022911071777344 0.414402633905411 0.000000000000000
-1.086760640144348 -10.201092720031738 0.155785590410233 0.000000000000000
-1.086432576179504 -9.018708229064941 0.714919328689575 0.000000000000000
-1.084897160530090 -13.812691688537598 1.063669443130493 0.000000000000000
-1.080575823783875 -3.309546709060669 0.724150121212006 0.000000000000000
-1.080224037170410 -7.432816982269287 0.128480687737465 0.000000000000000
-1.072106719017029 -5.161581993103027 0.211735337972641 0.000000000000000
-1.070455551147461 -8.644559860229492 0.551076233386993 0.000000000000000
-1.069412827491760 -3.503140211105347 0.196443319320679 0.000000000000000
-1.069391131401062 6.122286319732666 1.292717933654785 0.000000000000000
-1.069143295288086 -9.231867790222168 0.212523505091667 0.000000000000000
-1.068652391433716 -14.140017509460449 1.061247706413269 0.000000000000000
-1.067541718482971 -7.219785690307617 0.447660744190216 0.000000000000000
-1.064729571342468 -9.791457176208496 1.310661673545837 0.000000000000000
-1.061802029609680 -9.698383331298828 0.786689877510071 0.000000000000000
-1.059177517890930 -5.925818920135498 0.056736323982477 0.000000000000000
-1.057836651802063 -9.244355201721191 0.248527005314827 0.000000000000000
-1.057163238525391 5.182689189910889 1.417293190956116 0.000000000000000
-1.055550456047058 -5.179866313934326 0.479232490062714 0.000000000000000
-1.055158495903015 -4.481449604034424 0.008035491220653 0.000000000000000
-1.054665684700012 -3.067144632339478 0.431610792875290 0.000000000000000
-1.051019549369812 -14.319002151489258 0.936008572578430 0.000000000000000
-1.048608422279358 -14.854228019714355 0.512205600738525 0.000000000000000
-1.048343300819397 -7.264229297637939 0.492634832859039 0.000000000000000
-1.042565345764160 -9.786245346069336 0.452069282531738 0.000000000000000
-1.042070388793945 -8.556115150451660 0.751062870025635 0.000000000000000
-1.041521787643433 -6.994874477386475 0.012342962436378 0.000000000000000
-1.038443565368652 -7.022149562835693 0.367048382759094 0.000000000000000
-1.037380218505859 -8.772652626037598 0.627014398574829 0.000000000000000
-1.035194635391235 -4.444267749786377 0.341509819030762 0.000000000000000
-1.034071087837219 -8.584043502807617 0.413789659738541 0.000000000000000
-1.033484458923340 -9.754334449768066 1.114118218421936 0.000000000000000
-1.031952500343323 4.230345249176025 1.166756391525269 0.000000000000000
-1.031793117523193 -8.089128494262695 0.390270233154297 0.000000000000000
-1.030369639396667 -8.460044860839844 0.604924499988556 0.000000000000000
-1.026591181755066 -4.360119342803955 0.076623201370239 0.000000000000000
-1.024621248245239 -13.109729766845703 0.831918001174927 0.000000000000000
-1.023115634918213 -8.325396537780762 0.579192698001862 0.000000000000000
-1.023078799247742 -9.112350463867188 0.209688648581505 0.000000000000000
-1.021775484085083 -3.133347988128662 0.883090615272522 0.000000000000000
-1.015706419944763 -4.424870967864990 0.331003189086914 0.000000000000000
-1.014806032180786 -4.568438053131104 0.044107310473919 0.000000000000000
-1.012163639068604 -8.579949378967285 0.098015598952770 0.000000000000000
-1.008995532989502 -12.909802436828613 0.420518368482590 0.000000000000000
-1.005671143531799 5.019656658172607 1.371740937232971 0.000000000000000
-1.005539774894714 -3.049216985702515 0.860314548015594 0.000000000000000
-1.005393505096436 -12.336933135986328 0.592384636402130 0.000000000000000
-0.997951269149780 -12.646317481994629 0.753665447235107 0.000000000000000
-0.997527897357941 -14.788225173950195 0.253540694713593 0.000000000000000
-0.995802640914917 -3.735155582427979 0.222213253378868 0.000000000000000
-0.995059788227081 -12.492904663085938 0.889544844627380 0.000000000000000
-0.993802011013031 -14.004761695861816 0.024504410102963 0.000000000000000
-0.992890894412994 -14.085951805114746 0.295790761709213 0.000000000000000
-0.984918832778931 -9.959070205688477 1.136689543724060 0.000000000000000
-0.984530210494995 -13.874102592468262 1.094661355018616 0.000000000000000
-0.984406173229218 -10.043375015258789 0.502384722232819 0.000000000000000
-0.983593225479126 -14.581645011901855 0.924605906009674 0.000000000000000
-0.983478963375092 12.902112960815430 3.467140197753906 0.000000000000000
-0.983365774154663 12.305303573608398 3.307707548141479 0.000000000000000
-0.981822609901428 -13.085323333740234 1.316699862480164 0.000000000000000
-0.981424450874329 -4.433876991271973 0.455673187971115 0.000000000000000
-0.974726140499115 -9.690196990966797 0.848635017871857 0.000000000000000
-0.974562227725983 -9.989631652832031 1.228839397430420 0.000000000000000
-0.974505305290222 -14.361042022705078 0.633492708206177 0.000000000000000
-0.974385499954224 -11.552867889404297 0.890065371990204 0.000000000000000
-0.973967611789703 -9.682656288146973 0.690735459327698 0.000000000000000
-0.972040712833405 -13.698099136352539 0.868791103363037 0.000000000000000
-0.970574617385864 -6.317661285400391 0.556960165500641 0.000000000000000
-0.970520377159119 -8.572690010070801 0.280172467231750 0.000000000000000
-0.970376789569855 -11.044830322265625 0.851180553436279 0.000000000000000
-0.968240022659302 -9.790421485900879 0.338399499654770 0.000000000000000
-0.967038929462433 5.424544811248779 1.146095871925354 0.000000000000000
-0.965976536273956 -4.019872665405273 0.118370227515697 0.000000000000000
-0.965302348136902 -7.362986087799072 0.790988028049469 0.000000000000000
-0.964720964431763 -14.220526695251465 0.874260842800140 0.000000000000000
-0.960991382598877 9.255090713500977 1.935411453247070 0.000000000000000
-0.960502624511719 -10.214335441589355 1.256060481071472 0.000000000000000
-0.958758473396301 -14.862318038940430 1.494416356086731 0.000000000000000
-0.954720854759216 -6.073142051696777 0.057942677289248 0.000000000000000
-0.954634726047516 -7.616569995880127 0.426476269960403 0.000000000000000
-0.954470694065094 -2.993999719619751 0.186696484684944 0.000000000000000
-0.954274237155914 -13.862311363220215 1.013079285621643 0.000000000000000
-0.952560603618622 -14.895731925964355 0.944305241107941 0.000000000000000
-0.951216101646423 -9.456473350524902 1.408542275428772 0.000000000000000
-0.949768006801605 -3.188780546188354 0.178448513150215 0.000000000000000
-0.949665129184723 -9.794560432434082 0.262838423252106 0.000000000000000
-0.949048936367035 -8.859991073608398 1.320581674575806 0.000000000000000
-0.945760190486908 -7.261120319366455 0.562146544456482 0.000000000000000
-0.942625999450684 3.851906061172485 0.422396928071976 1.000000000000000
-0.941576540470123 -11.553851127624512 0.912322402000427 0.000000000000000
-0.939767241477966 -14.603629112243652 0.644045054912567 0.000000000000000
-0.938497185707092 -4.524672508239746 0.789878249168396 0.000000000000000
-0.937992990016937 -8.217356681823730 0.786182582378387 0.000000000000000
-0.937537431716919 -13.975127220153809 1.129400014877319 0.000000000000000
-0.936063826084137 -14.015443801879883 1.078366041183472 0.000000000000000
-0.934607982635498 -14.699613571166992 1.672983050346375 0.000000000000000
-0.933521449565887 -9.768262863159180 0.469624519348145 0.000000000000000
-0.928701281547546 3.756078720092773 0.804792225360870 0.000000000000000
-0.926721692085266 -11.634923934936523 1.017042636871338 0.000000000000000
-0.926601946353912 -7.883035182952881 1.176326274871826 0.000000000000000
-0.923879265785217 -8.591032981872559 0.783312201499939 0.000000000000000
-0.923371672630310 -14.767060279846191 0.054230052977800 0.000000000000000
-0.923320233821869 -6.164828777313232 1.065526962280273 0.000000000000000
-0.922812521457672 -14.514093399047852 0.500242710113525 0.000000000000000
-0.918458402156830 -7.200597763061523 0.773193955421448 0.000000000000000
-0.914023399353027 -4.569260597229004 0.276842176914215 0.000000000000000
-0.913154482841492 2.896330833435059 0.813727080821991 0.000000000000000
-0.912470161914825 -11.496553421020508 1.045499682426453 0.000000000000000
-0.911644876003265 -3.060784816741943 0.122130051255226 0.000000000000000
-0.910350680351257 -7.935860157012939 0.566975116729736 0.000000000000000
-0.909256935119629 -10.695960998535156 0.679121911525726 0.000000000000000
-0.904435634613037 12.580593109130859 2.155990123748779 1.000000000000000
-0.904402077198029 -14.694235801696777 0.874650478363037 0.000000000000000
-0.901754796504974 -14.651224136352539 1.098563075065613 0.000000000000000
-0.901440680027008 -4.423608779907227 0.771681427955627 0.000000000000000
-0.898306488990784 -10.469715118408203 0.915650844573975 0.000000000000000
-0.888774156570435 -14.794034004211426 1.683365821838379 0.000000000000000
-0.882870376110077 -7.293516635894775 1.528127789497375 0.000000000000000
-0.880682647228241 -8.820185661315918 0.842581808567047 0.000000000000000
-0.878721475601196 -13.974677085876465 0.912849068641663 0.000000000000000
-0.878441333770752 -6.947730541229248 0.591754794120789 0.000000000000000
-0.874049305915833 -6.653423786163330 0.269525140523911 0.000000000000000
-0.868986785411835 -14.783644676208496 0.822775244712830 0.000000000000000
-0.867976129055023 -4.112440109252930 0.718438804149628 0.000000000000000
-0.867942929267883 -14.498008728027344 1.932750940322876 0.000000000000000
-0.864967942237854 -14.178663253784180 0.652499496936798 0.000000000000000
-0.864478111267090 -11.369801521301270 1.949085354804993 0.000000000000000
-0.863928794860840 -4.175056457519531 0.195841625332832 0.000000000000000
-0.863816022872925 -8.683464050292969 0.669921994209290 0.000000000000000
-0.862810671329498 -14.864566802978516 0.655300855636597 0.000000000000000
-0.856551170349121 -7.723937034606934 1.328370332717896 0.000000000000000
-0.856035411357880 -7.284885883331299 1.525684118270874 0.000000000000000
-0.854479968547821 3.254997730255127 0.901725590229034 0.000000000000000
-0.853632807731628 -8.804111480712891 0.508473515510559 0.000000000000000
-0.851388931274414 -14.658917427062988 2.176145076751709 0.000000000000000
-0.850463509559631 -14.070185661315918 0.674607217311859 0.000000000000000
-0.849462866783142 -3.825990915298462 0.669913768768311 0.000000000000000
-0.847780168056488 -14.605620384216309 0.869194328784943 0.000000000000000
-0.846239268779755 -6.222924709320068 0.445763677358627 0.000000000000000
-0.844102621078491 -14.823995590209961 1.581552386283875 0.000000000000000
-0.843974769115448 -4.294632434844971 0.251596838235855 0.000000000000000
-0.843571543693542 -4.656194210052490 0.008258894085884 0.000000000000000
-0.843235611915588 -9.616958618164062 0.592146456241608 0.000000000000000
-0.837679386138916 -6.444497108459473 0.864804506301880 0.000000000000000
-0.835581362247467 -8.489878654479980 0.654919147491455 0.000000000000000
-0.835256814956665 -8.655473709106445 0.650779187679291 0.000000000000000
-0.833103656768799 -9.327384948730469 0.815995275974274 0.000000000000000
-0.833003461360931 -10.732782363891602 0.868027269840240 0.000000000000000
-0.831735551357269 -9.072566986083984 0.313373595476151 0.000000000000000
-0.829296946525574 -7.459159851074219 0.532707393169403 0.000000000000000
-0.827554821968079 -8.288101196289062 0.494852453470230 0.000000000000000
-0.827411592006683 -4.856379985809326 0.235768333077431 0.000000000000000
-0.827364325523376 -7.441776752471924 0.652448952198029 0.000000000000000
-0.825843691825867 3.856154203414917 0.820269048213959 0.000000000000000
-0.823991417884827 -14.906220436096191 0.829432010650635 0.000000000000000
-0.818465173244476 -14.233693122863770 0.874505758285522 0.000000000000000
-0.818188667297363 -14.462252616882324 0.275604397058487 0.000000000000000
-0.817965090274811 -13.615386009216309 0.469166606664658 0.000000000000000
-0.816768050193787 -13.895273208618164 1.212881565093994 0.000000000000000
-0.815435886383057 -14.950286865234375 1.423228979110718 0.000000000000000
-0.815392613410950 -3.014865159988403 0.173519492149353 0.000000000000000
-0.815176010131836 -7.369630336761475 0.704801142215729 0.000000000000000
-0.814865887165070 -8.526664733886719 0.674120604991913 0.000000000000000
-0.813392877578735 -14.145483016967773 1.421732306480408 0.000000000000000
-0.813222169876099 -9.146235466003418 0.421784490346909 0.000000000000000
-0.811112403869629 -8.432980537414551 0.738215327262878 0.000000000000000
-0.805805087089539 -4.819953918457031 0.224474519491196 0.000000000000000
-0.804754257202148 4.259863853454590 0.901725709438324 0.000000000000000
-0.802124142646790 -8.359434127807617 0.842655956745148 0.000000000000000
-0.801653623580933 -4.705197334289551 0.508401513099670 0.000000000000000
-0.801100969314575 -4.691071033477783 0.218601107597351 0.000000000000000
-0.798853456974030 -14.948480606079102 0.256072014570236 0.000000000000000
-0.797091484069824 -4.579399108886719 0.186693117022514 0.000000000000000
-0.795863151550293 -12.181627273559570 0.890043795108795 0.000000000000000
-0.795167744159698 -8.093749046325684 0.498842984437943 0.000000000000000
-0.793315291404724 -14.844848632812500 1.169982075691223 0.000000000000000
-0.792244613170624 -10.638332366943359 0.510544538497925 0.000000000000000
-0.792239308357239 -5.215046882629395 0.425333380699158 0.000000000000000
-0.791949927806854 -8.007852554321289 0.524601936340332 1.000000000000000
-0.791400015354156 -13.898441314697266 1.095602869987488 0.000000000000000
-0.789976239204407 -4.360368728637695 0.075802236795425 0.000000000000000
-0.786546349525452 -9.967335700988770 0.440032958984375 0.000000000000000
-0.783512115478516 -4.162946701049805 0.451206356287003 0.000000000000000
-0.782501578330994 -14.802506446838379 1.252553224563599 0.000000000000000
-0.782501578330994 9.075366973876953 1.894683122634888 0.000000000000000
-0.780428051948547 -8.146781921386719 0.360186845064163 0.000000000000000
-0.779592514038086 -3.849354267120361 0.187964543700218 0.000000000000000
-0.778926491737366 12.691696166992188 2.173513174057007 1.000000000000000
-0.778415381908417 -4.566393375396729 0.186050996184349 0.000000000000000
-0.776711404323578 -8.793005943298340 1.002616167068481 0.000000000000000
-0.774921059608459 6.568881034851074 1.375803828239441 0.000000000000000
-0.774476289749146 -9.438292503356934 0.434999674558640 0.000000000000000
-0.770518779754639 9.296469688415527 1.940298795700073 0.000000000000000
-0.767936348915100 -10.161053657531738 0.605399489402771 0.000000000000000
-0.766373813152313 -13.863902091979980 0.985551178455353 0.000000000000000
-0.766135394573212 -9.961372375488281 0.651328682899475 0.000000000000000
-0.761291503906250 -8.236169815063477 0.379936426877975 0.000000000000000
-0.759261965751648 -3.969651222229004 0.139017418026924 0.000000000000000
-0.758493661880493 -3.679117441177368 0.237654790282249 0.000000000000000
-0.754689931869507 -9.105519294738770 0.244041338562965 0.000000000000000
-0.753958523273468 -7.561710357666016 0.662171483039856 0.000000000000000
-0.753391325473785 -10.062067031860352 0.444078028202057 0.000000000000000
-0.753063023090363 -7.766865730285645 0.568929910659790 0.000000000000000
-0.752325654029846 -9.894747734069824 0.899599254131317 0.000000000000000
-0.751568078994751 -4.201439380645752 0.522548377513885 0.000000000000000
-0.749717652797699 -8.380604743957520 0.799809277057648 0.000000000000000
-0.749662876129150 -12.814727783203125 0.540258884429932 0.000000000000000
-0.748117923736572 -13.602566719055176 0.154556080698967 0.000000000000000
-0.747774600982666 -7.516963958740234 0.757991015911102 0.000000000000000
-0.747675836086273 3.423689842224121 0.938995540142059 0.000000000000000
-0.746219456195831 -4.368318557739258 0.656772375106812 1.000000000000000
-0.745921969413757 -13.099762916564941 0.627950727939606 0.000000000000000
-0.741079330444336 -11.391995429992676 0.854371666908264 0.000000000000000
-0.740586400032043 3.448944807052612 0.945207178592682 0.000000000000000
-0.740440070629120 -8.382385253906250 0.289447724819183 0.000000000000000
-0.737526059150696 -10.194225311279297 0.745193481445312 0.000000000000000
-0.737342715263367 -12.949094772338867 0.820553004741669 0.000000000000000
-0.737039685249329 -7.973796844482422 0.803518354892731 0.000000000000000
-0.734336376190186 -13.351984977722168 0.562797665596008 0.000000000000000
-0.733549237251282 -11.276241302490234 0.671348214149475 0.000000000000000
-0.732854843139648 -7.684079170227051 0.622407734394073 0.000000000000000
-0.731483876705170 -13.091747283935547 0.854820132255554 0.000000000000000
-0.726194679737091 -8.449897766113281 0.503866970539093 0.000000000000000
-0.724172234535217 -3.431102514266968 0.255669444799423 0.000000000000000
-0.723471999168396 -10.552578926086426 0.628410398960114 0.000000000000000
-0.722881019115448 -11.391500473022461 0.876287341117859 0.000000000000000
-0.721334517002106 -3.415885210037231 0.247803822159767 0.000000000000000
-0.720621705055237 5.770709991455078 1.209632039070129 0.000000000000000
-0.719800293445587 -14.963593482971191 0.832316577434540 0.000000000000000
-0.719471752643585 -10.138871192932129 0.486451476812363 0.000000000000000
-0.718537926673889 -7.667030811309814 0.546584427356720 0.000000000000000
-0.717997550964355 -14.926116943359375 1.302120089530945 0.000000000000000
-0.717907965183258 -13.940549850463867 0.372843921184540 0.000000000000000
-0.717037618160248 -4.299136638641357 0.343023210763931 0.000000000000000
-0.715823411941528 -14.174665451049805 1.424128532409668 0.000000000000000
-0.713609814643860 -7.911631584167480 0.441343039274216 0.000000000000000
-0.713467717170715 -8.298414230346680 1.234380245208740 0.000000000000000
-0.709859311580658 -7.313303470611572 0.069252245128155 1.000000000000000
-0.708743810653687 -7.562524795532227 0.071589551866055 0.000000000000000
-0.707768619060516 -5.247877597808838 0.080413304269314 0.000000000000000
-0.702745079994202 -11.104874610900879 0.682511210441589 0.000000000000000
-0.702548265457153 -11.049753189086914 0.892782151699066 0.000000000000000
-0.698645532131195 5.749742507934570 1.204744696617126 0.000000000000000
-0.697130978107452 -14.954625129699707 0.716483354568481 0.000000000000000
-0.697115778923035 -14.062405586242676 0.484292119741440 0.000000000000000
-0.695940554141998 -14.098401069641113 1.878403902053833 0.000000000000000
-0.694296360015869 -4.465290069580078 0.513270854949951 0.000000000000000
-0.694272994995117 -8.519250869750977 0.277575880289078 0.000000000000000
-0.693327307701111 -4.893610954284668 0.122517950832844 0.000000000000000
-0.692800045013428 -3.838503122329712 0.299444079399109 0.000000000000000
-0.688512980937958 -4.113510608673096 0.867513954639435 0.000000000000000
-0.684781849384308 -14.607464790344238 0.362498492002487 0.000000000000000
-0.682445883750916 -3.766841650009155 0.301282942295074 0.000000000000000
-0.682321608066559 -14.848593711853027 1.141133069992065 0.000000000000000
-0.680361270904541 -9.040081977844238 0.789952874183655 0.000000000000000
-0.679356873035431 -9.803766250610352 0.697532296180725 0.000000000000000
-0.676723361015320 -7.242623805999756 0.659441232681274 0.000000000000000
-0.676332592964172 -14.746367454528809 1.964409589767456 0.000000000000000
-0.671807050704956 -14.130346298217773 0.622588574886322 0.000000000000000
-0.670562624931335 -12.846580505371094 0.640411317348480 0.000000000000000
-0.669408202171326 -14.242322921752930 1.094593644142151 0.000000000000000
-0.668515622615814 -3.340133428573608 0.195813953876495 0.000000000000000
-0.665201485157013 -14.716874122619629 0.053995478898287 0.000000000000000
-0.664655327796936 -4.057919025421143 0.855295419692993 0.000000000000000
-0.662195444107056 -14.880683898925781 0.856255650520325 0.000000000000000
-0.660715878009796 -9.739321708679199 0.448398381471634 0.000000000000000
-0.660122573375702 -7.615655422210693 0.424701124429703 0.000000000000000
-0.659545421600342 -7.369730472564697 1.096575379371643 0.000000000000000
-0.659049689769745 -14.809992790222168 1.080850481987000 0.000000000000000
-0.657464504241943 -8.346420288085938 0.729534506797791 0.000000000000000
-0.656437933444977 12.860488891601562 2.201145410537720 1.000000000000000
-0.653959333896637 -8.283470153808594 1.231448292732239 0.000000000000000
-0.653527796268463 -4.269824504852295 0.898467481136322 0.000000000000000
-0.651441574096680 -3.846656322479248 0.141695216298103 0.000000000000000
-0.650271534919739 -3.878382444381714 0.165508940815926 0.000000000000000
-0.648108124732971 -3.424118757247925 0.146670520305634 1.000000000000000
-0.646647095680237 -4.527720928192139 0.781790792942047 0.000000000000000
-0.644566893577576 13.428791999816895 2.796408653259277 0.000000000000000
-0.644059479236603 -4.413788318634033 0.927791893482208 0.000000000000000
-0.640358984470367 -4.223704338073730 0.262033373117447 0.000000000000000
-0.638481974601746 -13.942326545715332 0.292356193065643 0.000000000000000
-0.636514723300934 -7.653734207153320 0.426698178052902 0.000000000000000
-0.635798215866089 -9.175173759460449 0.227986484766006 0.000000000000000
-0.635465443134308 -4.473972797393799 0.393761128187180 0.000000000000000
-0.632369399070740 -7.032884597778320 0.514829218387604 0.000000000000000
-0.631133019924164 -14.149302482604980 0.133490577340126 0.000000000000000
-0.630606293678284 -13.634955406188965 0.259701192378998 0.000000000000000
-0.630586624145508 -3.952787637710571 0.099223680794239 0.000000000000000
-0.628113150596619 -6.545957088470459 1.762040019035339 0.000000000000000
-0.621440827846527 -12.535869598388672 1.012055516242981 0.000000000000000
-0.618021726608276 -4.335937500000000 0.192756250500679 0.000000000000000
-0.617174446582794 -4.155406475067139 0.477156788110733 0.000000000000000
-0.615997195243835 -9.469211578369141 0.902009189128876 0.000000000000000
-0.615175187587738 3.375367641448975 0.919325292110443 0.000000000000000
-0.613897204399109 -9.396422386169434 0.541300475597382 0.000000000000000
-0.611684679985046 -8.922046661376953 0.669287621974945 0.000000000000000
-0.611121237277985 13.787088394165039 2.870534420013428 0.000000000000000
-0.610068619251251 -4.733487606048584 0.265160858631134 0.000000000000000
-0.602095305919647 -4.153602123260498 0.476705342531204 0.000000000000000
-0.601937294006348 3.365978956222534 0.916219472885132 0.000000000000000
-0.601842582225800 -3.687741756439209 0.236392006278038 0.000000000000000
-0.598460316658020 -13.879331588745117 0.878893375396729 0.000000000000000
-0.597540080547333 -11.832429885864258 0.544208467006683 0.000000000000000
-0.596457421779633 -13.004814147949219 0.497844278812408 0.000000000000000
-0.595403194427490 -13.808431625366211 1.087756991386414 0.000000000000000
-0.594291925430298 -14.027237892150879 0.752996981143951 0.000000000000000
-0.585405766963959 -13.817496299743652 0.528873562812805 0.000000000000000
-0.585192918777466 -14.834781646728516 0.939254105091095 0.000000000000000
-0.582574725151062 -7.382549285888672 1.540346264839172 0.000000000000000
-0.582339644432068 -4.602587699890137 0.284563332796097 0.000000000000000
-0.579889237880707 -4.416010379791260 0.136079624295235 0.000000000000000
-0.578679203987122 -14.887345314025879 0.799055159091949 0.000000000000000
-0.570976316928864 12.963232040405273 2.217994213104248 1.000000000000000
-0.566539824008942 -13.793395042419434 1.139831185340881 0.000000000000000
-0.563893914222717 -13.244163513183594 0.455966144800186 0.000000000000000
-0.561885118484497 -4.242765426635742 0.040337450802326 0.000000000000000
-0.560157537460327 -13.243420600891113 0.481415301561356 0.000000000000000
-0.559519827365875 -8.718484878540039 0.250134378671646 0.000000000000000
-0.556923210620880 -8.465323448181152 0.079958632588387 0.000000000000000
-0.553831458091736 -3.905105113983154 0.173586145043373 0.000000000000000
-0.552121222019196 -8.020415306091309 1.374199390411377 0.000000000000000
-0.552023231983185 -8.481223106384277 1.259595632553101 0.000000000000000
-0.550041019916534 -13.414565086364746 0.771777868270874 0.000000000000000
-0.547712683677673 -14.929878234863281 0.916382074356079 0.000000000000000
-0.539106726646423 -4.602370738983154 0.141576558351517 0.000000000000000
-0.537282645702362 -5.407705307006836 0.134710267186165 0.000000000000000
-0.534307658672333 -7.385302066802979 1.265692353248596 0.000000000000000
-0.532757759094238 -13.730653762817383 0.287832617759705 0.000000000000000
-0.532477140426636 -3.472458600997925 0.600496172904968 0.000000000000000
-0.531945288181305 -8.719714164733887 0.266906648874283 0.000000000000000
-0.530590236186981 -8.557413101196289 0.492863476276398 0.000000000000000
-0.529578804969788 -13.648724555969238 0.496078401803970 0.000000000000000
-0.528611958026886 -3.536182165145874 0.743699729442596 0.000000000000000
-0.524860799312592 -3.433588504791260 0.213055178523064 0.000000000000000
-0.519608795642853 -13.391767501831055 0.899547517299652 0.000000000000000
-0.519553005695343 -3.388176202774048 0.038888595998287 0.000000000000000
-0.518635272979736 -4.046340465545654 0.604582428932190 0.000000000000000
-0.518080055713654 -3.372284889221191 0.032156866043806 0.000000000000000
-0.515891432762146 -14.497550010681152 1.647703170776367 0.000000000000000
-0.512778460979462 -3.791592836380005 0.795832037925720 0.000000000000000
-0.511248707771301 -13.935920715332031 0.640569150447845 0.000000000000000
-0.509565532207489 -3.659106254577637 0.631498217582703 0.000000000000000
-0.508387804031372 -4.935571193695068 0.151593193411827 0.000000000000000
-0.506089031696320 -11.965115547180176 0.066886261105537 0.000000000000000
-0.499028325080872 -3.789476871490479 0.795017480850220 0.000000000000000
-0.498406141996384 -13.863166809082031 0.663899183273315 0.000000000000000
-0.497105926275253 -14.540886878967285 1.060780882835388 0.000000000000000
-0.495835065841675 -13.933927536010742 1.124256134033203 0.000000000000000
-0.495092183351517 -9.328552246093750 0.753254830837250 0.000000000000000
-0.493829995393753 -13.735880851745605 0.446354508399963 0.000000000000000
-0.493783593177795 -14.443705558776855 0.830774545669556 0.000000000000000
-0.492622345685959 -14.842115402221680 0.225509509444237 0.000000000000000
-0.490581482648849 -9.896140098571777 1.125403881072998 0.000000000000000
-0.490062534809113 -3.278303623199463 0.248072251677513 0.000000000000000
-0.488903969526291 -13.847910881042480 1.696459412574768 0.000000000000000
-0.488337129354477 -13.723221778869629 0.050330296158791 0.000000000000000
-0.487457275390625 -9.307458877563477 0.607611894607544 0.000000000000000
-0.486741632223129 -13.725560188293457 0.842424988746643 0.000000000000000
-0.484772592782974 -3.274570941925049 0.254129439592361 0.000000000000000
-0.482722491025925 -7.195561885833740 0.248058781027794 0.000000000000000
-0.479726940393448 -8.264771461486816 0.786939561367035 0.000000000000000
-0.478043437004089 -11.227794647216797 0.213817879557610 0.000000000000000
-0.475903928279877 -11.251469612121582 0.235895439982414 0.000000000000000
-0.475541323423386 -13.363635063171387 0.459953784942627 0.000000000000000
-0.474409312009811 -13.834520339965820 0.769077360630035 0.000000000000000
-0.472563117742538 -12.881405830383301 0.989573895931244 0.000000000000000
-0.463637113571167 -3.252800703048706 0.683421790599823 0.000000000000000
-0.463483303785324 -3.028168439865112 0.229265332221985 0.000000000000000
-0.462874531745911 -4.601646423339844 0.256950855255127 0.000000000000000
-0.459329575300217 -4.598639965057373 0.684919834136963 0.000000000000000
-0.456936985254288 -4.742002487182617 0.706030368804932 0.000000000000000
-0.456460535526276 -14.872040748596191 0.168804645538330 0.000000000000000
-0.455035418272018 -14.304561614990234 0.960624575614929 0.000000000000000
-0.454689741134644 -13.273051261901855 1.625976204872131 0.000000000000000
-0.454121589660645 -3.531280755996704 0.608583688735962 0.000000000000000
-0.453392058610916 -8.031543731689453 0.617565155029297 0.000000000000000
-0.450412273406982 -5.196284294128418 0.049158912152052 0.000000000000000
-0.448492705821991 -6.927900314331055 0.278835713863373 0.000000000000000
-0.447784304618835 -3.815256595611572 0.334731668233871 0.000000000000000
-0.443998873233795 -3.371599197387695 0.149667471647263 0.000000000000000
-0.434745132923126 -13.599481582641602 0.834588527679443 0.000000000000000
-0.432289570569992 -3.582206010818481 0.165740385651588 0.000000000000000
-0.424562394618988 -9.032985687255859 0.137322112917900 0.000000000000000
-0.424079865217209 -13.331438064575195 0.689687430858612 0.000000000000000
-0.423987835645676 -4.139587879180908 0.472642540931702 0.000000000000000
-0.421344101428986 4.200565338134766 0.878103315830231 0.000000000000000
-0.421225696802139 -7.800398349761963 0.358828842639923 0.000000000000000
-0.421035766601562 -14.449845314025879 0.025230467319489 0.000000000000000
-0.420226961374283 -8.232844352722168 1.714663624763489 0.000000000000000
-0.416423171758652 -14.705876350402832 0.082166887819767 0.000000000000000
-0.415202111005783 -4.657760620117188 0.187816798686981 0.000000000000000
-0.414930880069733 -7.607386112213135 0.570178091526031 0.000000000000000
-0.411240339279175 -3.122840404510498 0.299407988786697 0.000000000000000
-0.404138237237930 -8.738266944885254 0.705352485179901 0.000000000000000
-0.403959721326828 -7.406239986419678 1.542790055274963 0.000000000000000
-0.401731997728348 -3.466239213943481 0.214034721255302 0.000000000000000
-0.400957405567169 -6.437578678131104 0.358355462551117 0.000000000000000
-0.399955451488495 -6.121790885925293 0.556155264377594 0.000000000000000
-0.399941504001617 -13.226307868957520 1.257816433906555 0.000000000000000
-0.398660242557526 -10.966134071350098 0.482945829629898 0.000000000000000
-0.398508816957474 -4.489986419677734 0.198384150862694 0.000000000000000
-0.396920859813690 13.202462196350098 2.257757902145386 0.000000000000000
-0.392305880784988 -14.668549537658691 0.645803749561310 0.000000000000000
-0.391224682331085 -13.815998077392578 0.714680612087250 0.000000000000000
-0.390459746122360 4.034397602081299 0.843076944351196 0.000000000000000
-0.387252092361450 -9.420325279235840 0.669211924076080 0.000000000000000
-0.386342167854309 -14.445563316345215 0.191692978143692 0.000000000000000
-0.385293930768967 -14.165849685668945 0.160772815346718 0.000000000000000
-0.383910596370697 -3.171539545059204 0.091467902064323 0.000000000000000
-0.383542448282242 -5.120077133178711 0.127275928854942 0.000000000000000
-0.377079308032990 -12.941269874572754 1.379039049148560 0.000000000000000
-0.375937491655350 -11.715039253234863 0.403164267539978 0.000000000000000
-0.373305439949036 -9.104285240173340 0.383496344089508 0.000000000000000
-0.367671966552734 -7.139563560485840 0.521228253841400 0.000000000000000
-0.367297589778900 -11.066231727600098 0.508600890636444 0.000000000000000
-0.365438610315323 -4.588055610656738 0.114092357456684 1.000000000000000
-0.365239799022675 -3.533149003982544 0.738812327384949 0.000000000000000
-0.363282352685928 3.895362615585327 0.813752532005310 0.000000000000000
-0.359752178192139 -10.720387458801270 2.231099128723145 0.000000000000000
