# This PCD file was generated using the MATLAB® pcwrite function
# from Computer Vision Toolbox®.
# .PCD v.7 - Point Cloud Data file format
VERSION .7
FIELDS x y z intensity
SIZE 8 8 8 8
TYPE F F F F
COUNT 1 1 1 1
WIDTH 635
HEIGHT 1
VIEWPOINT 0 0 0 1 0 0 0
POINTS 635
DATA ascii
11.705489158630371 -17.251291275024414 0.116436600685120 1.000000000000000
11.708067893981934 -17.727926254272461 0.894151985645294 0.000000000000000
11.708211898803711 -21.265495300292969 -0.144055843353271 0.000000000000000
11.709285736083984 -17.418031692504883 1.004453420639038 1.000000000000000
11.709703445434570 -12.253076553344727 0.811134815216064 0.000000000000000
11.710523605346680 -21.596855163574219 -1.184358000755310 1.000000000000000
11.714898109436035 -10.692672729492188 -0.307316482067108 1.000000000000000
11.715758323669434 -16.395814895629883 -0.816412210464478 0.000000000000000
11.717868804931641 -20.417560577392578 1.353251218795776 0.000000000000000
11.719560623168945 -18.225687026977539 -0.919544994831085 1.000000000000000
11.728661537170410 -17.530651092529297 -0.813971221446991 1.000000000000000
11.728730201721191 -17.892007827758789 -0.784468472003937 1.000000000000000
11.730834960937500 -11.380282402038574 1.254725813865662 0.000000000000000
11.731506347656250 -20.932683944702148 -0.050257064402103 1.000000000000000
11.733829498291016 -19.411533355712891 1.828965544700623 1.000000000000000
11.737733840942383 -19.502471923828125 -0.790898203849792 1.000000000000000
11.738838195800781 -18.743820190429688 2.102290868759155 1.000000000000000
11.741832733154297 -21.924146652221680 -1.438375830650330 1.000000000000000
11.743263244628906 -21.657236099243164 1.084253907203674 1.000000000000000
11.747788429260254 -21.091011047363281 0.691218018531799 1.000000000000000
11.750392913818359 -20.474233627319336 0.267818540334702 1.000000000000000
11.753256797790527 -17.445930480957031 0.117486581206322 1.000000000000000
11.753539085388184 -17.138645172119141 1.194625854492188 0.000000000000000
11.754733085632324 -16.955749511718750 0.709662616252899 1.000000000000000
11.762017250061035 -20.240032196044922 2.658896446228027 1.000000000000000
11.764729499816895 -18.305765151977539 -0.714258849620819 0.000000000000000
11.765001296997070 -18.647840499877930 1.820504307746887 0.000000000000000
11.767284393310547 -10.951687812805176 1.400734066963196 0.000000000000000
11.769458770751953 -18.504266738891602 0.290908545255661 1.000000000000000
11.775744438171387 -16.860055923461914 1.658253669738770 0.000000000000000
11.775833129882812 -20.361854553222656 -0.817289292812347 1.000000000000000
11.777175903320312 -16.862106323242188 2.336127281188965 1.000000000000000
11.778654098510742 -16.897499084472656 0.312785893678665 0.000000000000000
11.779459953308105 -20.847280502319336 1.792031049728394 1.000000000000000
11.783244132995605 -17.236083984375000 -0.845882117748260 0.000000000000000
11.792113304138184 -18.103567123413086 -0.335632890462875 0.000000000000000
11.796207427978516 -19.445669174194336 0.607486724853516 0.000000000000000
11.797594070434570 -17.511741638183594 -1.180513262748718 0.000000000000000
11.799137115478516 -10.988251686096191 -0.529231309890747 1.000000000000000
11.799291610717773 -16.737724304199219 1.019487023353577 1.000000000000000
11.803775787353516 -18.760049819946289 1.830049514770508 1.000000000000000
11.803927421569824 -20.701202392578125 -1.194670438766479 1.000000000000000
11.804131507873535 -16.149580001831055 2.661951541900635 0.000000000000000
11.808175086975098 -16.301567077636719 -0.351351857185364 0.000000000000000
11.809179306030273 -20.094495773315430 -0.451598703861237 1.000000000000000
11.810245513916016 -18.360376358032227 -0.632670104503632 1.000000000000000
11.812292098999023 -20.825538635253906 1.930556893348694 1.000000000000000
11.812721252441406 -22.304698944091797 1.013729214668274 1.000000000000000
11.813529014587402 -20.471532821655273 0.132007643580437 1.000000000000000
11.821107864379883 -17.356412887573242 -1.012357354164124 0.000000000000000
11.822289466857910 -18.088392257690430 -0.543212175369263 1.000000000000000
11.825235366821289 -17.070806503295898 2.211970329284668 1.000000000000000
11.828453063964844 -21.279487609863281 0.697056412696838 1.000000000000000
11.829916000366211 -16.325586318969727 -0.661768794059753 0.000000000000000
11.836024284362793 -22.789203643798828 -0.152387291193008 0.000000000000000
11.836494445800781 -10.315450668334961 1.053847432136536 0.000000000000000
11.837486267089844 -18.307773590087891 1.899706363677979 1.000000000000000
11.840844154357910 -16.749443054199219 -0.988858997821808 0.000000000000000
11.841386795043945 -16.878625869750977 -1.033645272254944 0.000000000000000
11.843304634094238 -19.070068359375000 1.636691570281982 1.000000000000000
11.848230361938477 -16.141805648803711 2.009195327758789 1.000000000000000
11.849356651306152 -18.352815628051758 1.803717970848083 1.000000000000000
11.852821350097656 -20.950645446777344 2.415347337722778 1.000000000000000
11.853287696838379 -12.786053657531738 2.980240345001221 0.000000000000000
11.857683181762695 -15.096598625183105 2.350252389907837 0.000000000000000
11.867715835571289 -16.912391662597656 -0.678171932697296 0.000000000000000
11.868881225585938 -20.110010147094727 1.792684197425842 1.000000000000000
11.872725486755371 -20.727588653564453 1.649404168128967 1.000000000000000
11.879240989685059 -16.133821487426758 2.666172981262207 0.000000000000000
11.880343437194824 -18.900764465332031 2.535657167434692 1.000000000000000
11.882878303527832 -23.675867080688477 0.707559704780579 1.000000000000000
11.885127067565918 -16.565517425537109 1.211273550987244 0.000000000000000
11.887897491455078 -18.513038635253906 0.545383334159851 0.000000000000000
11.893097877502441 -18.427625656127930 2.685169458389282 1.000000000000000
11.896635055541992 -17.412380218505859 2.395263910293579 1.000000000000000
11.899499893188477 -17.178012847900391 0.357460945844650 1.000000000000000
11.899588584899902 -15.521304130554199 1.704214930534363 0.000000000000000
11.903520584106445 -20.379417419433594 -0.366636365652084 1.000000000000000
11.905130386352539 -18.447681427001953 -0.130288764834404 1.000000000000000
11.907650947570801 -17.756582260131836 -0.126870721578598 1.000000000000000
11.912209510803223 -15.800002098083496 -0.155412986874580 0.000000000000000
11.912563323974609 -21.269668579101562 0.276576429605484 1.000000000000000
11.917705535888672 -20.403701782226562 0.358823120594025 1.000000000000000
11.922247886657715 -17.770299911499023 -1.031618475914001 1.000000000000000
11.923511505126953 -18.331167221069336 -0.087783552706242 1.000000000000000
11.926030158996582 -19.574831008911133 -1.325670719146729 1.000000000000000
11.926446914672852 -11.428264617919922 -0.573935925960541 1.000000000000000
11.930495262145996 -17.434488296508789 2.811274051666260 0.000000000000000
11.932773590087891 -20.559465408325195 0.771967351436615 1.000000000000000
11.934239387512207 -20.596755981445312 2.388590097427368 1.000000000000000
11.934285163879395 -20.146053314208984 -0.453690916299820 1.000000000000000
11.940443038940430 -21.925807952880859 -1.443918704986572 1.000000000000000
11.940760612487793 -15.461248397827148 0.897347450256348 0.000000000000000
11.942220687866211 -16.526659011840820 1.486605763435364 1.000000000000000
11.944270133972168 -17.753522872924805 1.065230727195740 1.000000000000000
11.944872856140137 -19.834096908569336 1.911677598953247 1.000000000000000
11.946814537048340 -16.774808883666992 0.273187696933746 1.000000000000000
11.949188232421875 -20.896585464477539 -1.392185211181641 1.000000000000000
11.950318336486816 -17.897085189819336 -0.582317471504211 0.000000000000000
11.951141357421875 -17.297023773193359 1.532853245735168 1.000000000000000
11.951807022094727 -10.638198852539062 1.958948850631714 0.000000000000000
11.952466964721680 -10.311995506286621 -1.095561027526855 0.000000000000000
11.955812454223633 -10.716793060302734 1.077688932418823 0.000000000000000
11.957618713378906 -16.547969818115234 -0.395575046539307 1.000000000000000
11.961694717407227 -9.885733604431152 1.475085854530334 0.000000000000000
11.961926460266113 -15.748980522155762 1.632891416549683 1.000000000000000
11.963235855102539 -10.542560577392578 0.916629672050476 0.000000000000000
11.966049194335938 -16.913394927978516 0.633002340793610 0.000000000000000
11.970023155212402 -17.653753280639648 1.637450814247131 1.000000000000000
11.970793724060059 -17.562351226806641 0.649371027946472 1.000000000000000
11.972451210021973 -18.690599441528320 0.934183597564697 1.000000000000000
11.974669456481934 -17.714468002319336 0.283639818429947 1.000000000000000
11.975721359252930 -15.868102073669434 -0.690751075744629 0.000000000000000
11.984935760498047 -18.144395828247070 1.543463826179504 1.000000000000000
11.990085601806641 -14.075356483459473 1.611156702041626 0.000000000000000
11.994194984436035 -16.731092453002930 -0.754860341548920 0.000000000000000
11.996007919311523 -16.532922744750977 -0.474243015050888 0.000000000000000
11.998707771301270 -22.516960144042969 0.289463639259338 1.000000000000000
11.999293327331543 -11.623251914978027 1.347049713134766 0.000000000000000
12.002659797668457 -18.268135070800781 0.877923130989075 1.000000000000000
12.003146171569824 -18.313419342041016 -1.097734928131104 1.000000000000000
12.005687713623047 -12.369887351989746 -1.462670326232910 0.000000000000000
12.010869026184082 -20.444227218627930 0.177954912185669 1.000000000000000
12.016535758972168 -17.910839080810547 -0.707960069179535 1.000000000000000
12.016904830932617 -19.504201889038086 2.804748058319092 0.000000000000000
12.017315864562988 -18.058778762817383 -0.087077043950558 1.000000000000000
12.023284912109375 -15.126719474792480 1.938907265663147 1.000000000000000
12.027402877807617 -17.937862396240234 0.908953607082367 0.000000000000000
12.033701896667480 -17.454267501831055 0.810735702514648 1.000000000000000
12.034434318542480 -18.605249404907227 0.889962673187256 1.000000000000000
12.035024642944336 -11.650944709777832 1.285956263542175 0.000000000000000
12.038855552673340 -15.936714172363281 -0.962856650352478 0.000000000000000
12.043188095092773 -21.081457138061523 -0.796930789947510 1.000000000000000
12.044403076171875 -15.216977119445801 1.265185952186584 0.000000000000000
12.045104026794434 -20.639181137084961 1.051717519760132 1.000000000000000
12.046534538269043 -12.392916679382324 -1.499912500381470 0.000000000000000
12.047115325927734 -15.010931968688965 1.477624893188477 0.000000000000000
12.047234535217285 -17.436100006103516 0.891965389251709 0.000000000000000
12.047892570495605 -17.943359375000000 -1.000334858894348 1.000000000000000
12.048910140991211 -17.558828353881836 0.609709680080414 0.000000000000000
12.065532684326172 -22.155504226684570 0.092465244233608 1.000000000000000
12.071071624755859 -18.277572631835938 -0.424400508403778 0.000000000000000
12.073890686035156 -15.215992927551270 1.760917663574219 0.000000000000000
12.074147224426270 -11.256959915161133 2.446477413177490 0.000000000000000
12.076007843017578 -20.535394668579102 1.966974139213562 1.000000000000000
12.076157569885254 -15.749905586242676 0.606372773647308 0.000000000000000
12.076265335083008 -15.079573631286621 1.483136177062988 0.000000000000000
12.076390266418457 -22.511047363281250 1.665403008460999 1.000000000000000
12.079942703247070 -20.949243545532227 1.483304738998413 1.000000000000000
12.087120056152344 -19.863418579101562 0.040582373738289 1.000000000000000
12.088260650634766 -17.086133956909180 0.961404383182526 1.000000000000000
12.090317726135254 -11.485721588134766 1.673330903053284 0.000000000000000
12.090872764587402 -20.253679275512695 -0.864938139915466 1.000000000000000
12.099693298339844 -20.242761611938477 -0.774097561836243 1.000000000000000
12.104207992553711 -12.358683586120605 -0.933842182159424 0.000000000000000
12.111333847045898 -17.876264572143555 -0.376902163028717 1.000000000000000
12.112491607666016 -17.700447082519531 -0.827699363231659 1.000000000000000
12.122404098510742 -18.484106063842773 -0.385837823152542 0.000000000000000
12.132750511169434 -16.910655975341797 -0.363289296627045 0.000000000000000
12.134819030761719 -12.414189338684082 -1.238281965255737 0.000000000000000
12.136849403381348 -17.123737335205078 -0.688932418823242 0.000000000000000
12.137234687805176 -14.971130371093750 1.747194290161133 0.000000000000000
12.138044357299805 -16.931753158569336 1.815329074859619 1.000000000000000
12.138120651245117 -15.677732467651367 1.330837368965149 1.000000000000000
12.139930725097656 -16.864669799804688 0.116056814789772 0.000000000000000
12.143497467041016 -14.948431968688965 1.932517528533936 0.000000000000000
12.143645286560059 -9.224880218505859 1.867077469825745 0.000000000000000
12.143847465515137 -20.601358413696289 0.684692800045013 1.000000000000000
12.146380424499512 -19.108657836914062 -0.786731183528900 0.000000000000000
12.163263320922852 -17.337427139282227 -1.388116121292114 0.000000000000000
12.164245605468750 -19.124959945678711 -1.092675685882568 0.000000000000000
12.164959907531738 -18.331937789916992 -0.553063213825226 1.000000000000000
12.168884277343750 -15.551950454711914 1.790169954299927 1.000000000000000
12.169538497924805 -16.851156234741211 -0.762189149856567 0.000000000000000
12.170137405395508 -17.669309616088867 1.771461606025696 0.000000000000000
12.173617362976074 -17.303325653076172 -0.694443881511688 0.000000000000000
12.176078796386719 -17.227478027343750 -0.408747971057892 0.000000000000000
12.176395416259766 -18.063129425048828 2.898862838745117 0.000000000000000
12.184969902038574 -10.700236320495605 -1.438708543777466 1.000000000000000
12.187239646911621 -17.516864776611328 1.761916399002075 1.000000000000000
12.191251754760742 -15.647953987121582 2.253064870834351 0.000000000000000
12.191582679748535 -11.208377838134766 -0.607259511947632 1.000000000000000
12.195677757263184 -21.478744506835938 0.137950107455254 0.000000000000000
12.206548690795898 -17.865982055664062 1.744734764099121 1.000000000000000
12.208023071289062 -23.300260543823242 1.107093334197998 1.000000000000000
12.213175773620605 -16.587354660034180 1.740574002265930 1.000000000000000
12.218863487243652 -18.929477691650391 0.255611985921860 1.000000000000000
12.218878746032715 -16.795640945434570 -0.761602818965912 0.000000000000000
12.219447135925293 -17.731626510620117 1.403882741928101 1.000000000000000
12.220784187316895 -18.898408889770508 0.687605202198029 0.000000000000000
12.223945617675781 -17.958654403686523 1.248801708221436 0.000000000000000
12.224500656127930 -16.090015411376953 0.190453082323074 0.000000000000000
12.230105400085449 -17.060173034667969 0.197842001914978 0.000000000000000
12.236759185791016 -16.917469024658203 2.095058202743530 1.000000000000000
12.236969947814941 -11.754528045654297 1.106191992759705 0.000000000000000
12.237044334411621 -18.528882980346680 1.618948936462402 0.000000000000000
12.240820884704590 -17.444095611572266 1.266072630882263 1.000000000000000
12.245617866516113 -13.975255966186523 1.318882703781128 0.000000000000000
12.247065544128418 -19.526521682739258 0.925760209560394 1.000000000000000
12.250968933105469 -17.444950103759766 2.138988256454468 1.000000000000000
12.253629684448242 -10.461150169372559 1.299147605895996 0.000000000000000
12.255980491638184 -17.469585418701172 -0.413474768400192 1.000000000000000
12.257699966430664 -11.001681327819824 1.754408955574036 0.000000000000000
12.260565757751465 -18.234645843505859 0.544689416885376 0.000000000000000
12.263610839843750 -17.065992355346680 -0.932249248027802 0.000000000000000
12.269249916076660 -17.079498291015625 -1.054274082183838 1.000000000000000
12.270333290100098 -15.524678230285645 0.680649101734161 1.000000000000000
12.276724815368652 -18.128555297851562 0.879367887973785 1.000000000000000
12.276881217956543 -10.828096389770508 2.004155397415161 0.000000000000000
12.280683517456055 -23.241233825683594 0.298221528530121 1.000000000000000
12.281442642211914 -18.090604782104492 1.425480961799622 1.000000000000000
12.281511306762695 -19.413921356201172 -0.400986492633820 1.000000000000000
12.288734436035156 -19.332609176635742 -0.443849951028824 0.000000000000000
12.293498992919922 -11.368769645690918 1.591669678688049 0.000000000000000
12.294575691223145 -19.012519836425781 0.343821525573730 1.000000000000000
12.304243087768555 -10.449902534484863 -1.494694471359253 0.000000000000000
12.308269500732422 -16.781446456909180 1.236419439315796 0.000000000000000
12.321735382080078 -17.142459869384766 0.604443728923798 1.000000000000000
12.326845169067383 -9.120718955993652 1.236456632614136 0.000000000000000
12.334790229797363 -11.812943458557129 1.623465061187744 0.000000000000000
12.335155487060547 -17.856811523437500 0.204552352428436 1.000000000000000
12.336797714233398 -17.121763229370117 -0.165748730301857 1.000000000000000
12.340796470642090 -20.509334564208984 -0.877690136432648 1.000000000000000
12.344206809997559 -10.336376190185547 -0.497534513473511 1.000000000000000
12.346997261047363 -17.052944183349609 0.521890819072723 0.000000000000000
12.353262901306152 -11.396068572998047 -0.551670789718628 0.000000000000000
12.358694076538086 -17.212251663208008 2.126208543777466 1.000000000000000
12.359156608581543 -11.897221565246582 1.827279806137085 0.000000000000000
12.361459732055664 -19.646390914916992 1.558001279830933 1.000000000000000
12.365846633911133 -19.502004623413086 1.549964785575867 0.000000000000000
12.367505073547363 -16.117063522338867 1.285255193710327 0.000000000000000
12.368230819702148 -16.850244522094727 0.638621449470520 0.000000000000000
12.373053550720215 -19.535223007202148 1.775231957435608 1.000000000000000
12.387409210205078 -10.494883537292480 1.089743614196777 0.000000000000000
12.401383399963379 -15.726561546325684 -0.041946515440941 0.000000000000000
12.406478881835938 -18.982215881347656 1.522104978561401 1.000000000000000
12.410575866699219 -11.802744865417480 1.628007292747498 0.000000000000000
12.413592338562012 -10.006492614746094 0.333989739418030 0.000000000000000
12.415578842163086 -15.693800926208496 -0.195591062307358 0.000000000000000
12.431391716003418 -14.572792053222656 2.838781356811523 0.000000000000000
12.432938575744629 -17.076091766357422 1.254922986030579 1.000000000000000
12.440566062927246 -17.612121582031250 -1.122511267662048 1.000000000000000
12.443822860717773 -19.325325012207031 -0.931215167045593 0.000000000000000
12.445156097412109 -19.280052185058594 -0.092118941247463 1.000000000000000
12.447166442871094 -16.358184814453125 1.953911542892456 0.000000000000000
12.449478149414062 -20.994010925292969 1.826659679412842 1.000000000000000
12.451938629150391 -18.711898803710938 1.638727664947510 0.000000000000000
12.452937126159668 -10.656126976013184 1.428165435791016 0.000000000000000
12.458149909973145 -21.574670791625977 -0.578413069248199 1.000000000000000
12.459249496459961 -16.154155731201172 0.544901072978973 0.000000000000000
12.472231864929199 -19.026206970214844 1.982347607612610 1.000000000000000
12.472845077514648 -9.189728736877441 1.159461736679077 0.000000000000000
12.473410606384277 -17.230707168579102 1.018029689788818 1.000000000000000
12.473633766174316 -13.361366271972656 3.124467134475708 0.000000000000000
12.476664543151855 -13.264010429382324 1.730964422225952 0.000000000000000
12.485922813415527 -22.126426696777344 -0.541057229042053 1.000000000000000
12.486285209655762 -17.102895736694336 2.405195236206055 0.000000000000000
12.486865043640137 -11.936461448669434 1.839989900588989 0.000000000000000
12.487485885620117 -17.742210388183594 1.665619373321533 1.000000000000000
12.489986419677734 -9.920044898986816 1.039836049079895 0.000000000000000
12.494091987609863 -18.171539306640625 0.716140627861023 1.000000000000000
12.499797821044922 -18.979995727539062 2.782387971878052 1.000000000000000
12.500426292419434 -15.576320648193359 1.649019479751587 0.000000000000000
12.501760482788086 -17.018463134765625 0.685760438442230 1.000000000000000
12.503427505493164 -17.126375198364258 -0.899871945381165 1.000000000000000
12.511671066284180 -16.349203109741211 -0.438432663679123 1.000000000000000
12.513155937194824 -9.008514404296875 1.547132253646851 0.000000000000000
12.517071723937988 -15.836855888366699 2.292790412902832 0.000000000000000
12.517478942871094 -17.772300720214844 1.794830918312073 0.000000000000000
12.519894599914551 -20.389051437377930 2.717581748962402 1.000000000000000
12.520084381103516 -18.159740447998047 1.863842368125916 1.000000000000000
12.521775245666504 -20.200279235839844 3.162683486938477 0.000000000000000
12.525689125061035 -15.716520309448242 0.768548071384430 0.000000000000000
12.526329994201660 -21.905881881713867 1.645105957984924 1.000000000000000
12.531578063964844 -17.281194686889648 -1.193463802337646 0.000000000000000
12.536729812622070 -19.093332290649414 2.291944265365601 1.000000000000000
12.539882659912109 -8.851815223693848 2.623716831207275 0.000000000000000
12.540866851806641 -21.557748794555664 -0.626945674419403 1.000000000000000
12.553664207458496 -16.446859359741211 -0.480370640754700 0.000000000000000
12.558724403381348 -21.416099548339844 -0.242661148309708 1.000000000000000
12.560780525207520 -21.522789001464844 -0.052192285656929 1.000000000000000
12.561379432678223 -17.189369201660156 0.773226082324982 1.000000000000000
12.567903518676758 -10.833785057067871 3.451320409774780 0.000000000000000
12.568824768066406 -10.599314689636230 1.649768471717834 0.000000000000000
12.569269180297852 -20.847827911376953 2.121240377426147 1.000000000000000
12.570053100585938 -11.829686164855957 1.158589243888855 0.000000000000000
12.570951461791992 -10.950507164001465 -0.739559590816498 1.000000000000000
12.573381423950195 -18.150823593139648 0.717049419879913 1.000000000000000
12.577209472656250 -13.370900154113770 1.373800873756409 0.000000000000000
12.583846092224121 -23.159206390380859 0.754638850688934 1.000000000000000
12.588812828063965 -17.167716979980469 1.929931044578552 1.000000000000000
12.596962928771973 -21.440128326416016 0.234371915459633 1.000000000000000
12.609260559082031 -20.662147521972656 2.045376539230347 1.000000000000000
12.612219810485840 -19.918214797973633 1.900979638099670 1.000000000000000
12.614864349365234 -11.717532157897949 1.955575466156006 0.000000000000000
12.621730804443359 -10.075073242187500 1.464060783386230 0.000000000000000
12.629634857177734 -16.359712600708008 1.227879285812378 0.000000000000000
12.640998840332031 -11.187351226806641 1.798046827316284 0.000000000000000
12.645430564880371 -18.377214431762695 1.798745393753052 1.000000000000000
12.651062965393066 -18.447387695312500 1.630874276161194 1.000000000000000
12.678485870361328 -21.615139007568359 3.334694623947144 0.000000000000000
12.681306838989258 -22.592281341552734 0.642227947711945 1.000000000000000
12.685444831848145 -10.753472328186035 1.340941309928894 0.000000000000000
12.685467720031738 -17.632907867431641 1.416113018989563 0.000000000000000
12.688241004943848 -21.418792724609375 1.431071758270264 1.000000000000000
12.691380500793457 -18.409570693969727 1.113162040710449 1.000000000000000
12.694900512695312 -19.715251922607422 2.870856523513794 1.000000000000000
12.704349517822266 -16.569202423095703 2.095058202743530 0.000000000000000
12.706616401672363 -15.158191680908203 0.984682083129883 1.000000000000000
12.709855079650879 -20.344758987426758 3.192231416702271 0.000000000000000
12.711019515991211 -10.743165016174316 -1.379992485046387 0.000000000000000
12.712196350097656 -20.865207672119141 1.970100402832031 1.000000000000000
12.715038299560547 -16.099454879760742 1.297883033752441 0.000000000000000
12.721291542053223 -18.143615722656250 0.208849996328354 0.000000000000000
12.727069854736328 -15.887117385864258 0.895894467830658 1.000000000000000
12.732520103454590 -9.687644958496094 1.351908802986145 0.000000000000000
12.732772827148438 -17.672624588012695 1.420016288757324 1.000000000000000
12.737440109252930 -17.871084213256836 2.202087640762329 1.000000000000000
12.738059043884277 -22.059410095214844 -0.983027935028076 1.000000000000000
12.738079071044922 -9.972860336303711 1.054668426513672 0.000000000000000
12.739562034606934 -10.799347877502441 -0.708738207817078 0.000000000000000
12.740455627441406 -18.552043914794922 0.687605202198029 1.000000000000000
12.741316795349121 -16.760540008544922 1.908623814582825 1.000000000000000
12.743627548217773 -8.491233825683594 1.293979406356812 0.000000000000000
12.744881629943848 -23.121639251708984 -1.425235867500305 1.000000000000000
12.746439933776855 -23.151216506958008 -1.375793695449829 1.000000000000000
12.751162528991699 -21.766895294189453 -0.682616293430328 1.000000000000000
12.753454208374023 -22.061164855957031 -0.297995626926422 1.000000000000000
12.761661529541016 -22.417188644409180 -0.499796122312546 1.000000000000000
12.764394760131836 -16.071207046508789 1.950883507728577 0.000000000000000
12.765572547912598 -19.895114898681641 2.059780359268188 1.000000000000000
12.766832351684570 -18.143812179565430 2.519857406616211 1.000000000000000
12.768653869628906 -11.438970565795898 1.183735489845276 0.000000000000000
12.772683143615723 -17.817031860351562 -1.141226768493652 1.000000000000000
12.773216247558594 -16.216714859008789 0.194562241435051 0.000000000000000
12.775514602661133 -13.677070617675781 1.400668025016785 0.000000000000000
12.775521278381348 -18.785907745361328 2.781415700912476 0.000000000000000
12.783848762512207 -19.547676086425781 1.973638534545898 1.000000000000000
12.791336059570312 -16.196060180664062 -0.280975371599197 1.000000000000000
12.792234420776367 -16.570333480834961 1.989870905876160 1.000000000000000
12.798312187194824 -16.691751480102539 0.319406032562256 0.000000000000000
12.799861907958984 -22.997751235961914 -1.218192934989929 1.000000000000000
12.807777404785156 -15.647489547729492 0.967740118503571 1.000000000000000
12.816871643066406 -19.088628768920898 1.765128016471863 1.000000000000000
12.817772865295410 -18.266294479370117 0.638901591300964 0.000000000000000
12.821454048156738 -8.635487556457520 1.551125884056091 0.000000000000000
12.823168754577637 -14.317774772644043 3.997895479202271 0.000000000000000
12.823888778686523 0.975037813186646 -1.315434813499451 1.000000000000000
12.830130577087402 -10.241424560546875 1.196905255317688 0.000000000000000
12.834274291992188 -17.498617172241211 -0.378787010908127 0.000000000000000
12.839201927185059 -18.165706634521484 1.621857523918152 0.000000000000000
12.847094535827637 -16.279504776000977 0.952594220638275 0.000000000000000
12.847185134887695 -12.915532112121582 1.363352656364441 0.000000000000000
12.847554206848145 -10.530963897705078 -0.513348817825317 1.000000000000000
12.848968505859375 -17.781494140625000 1.988796949386597 1.000000000000000
12.849939346313477 -19.467245101928711 2.855787754058838 1.000000000000000
12.854083061218262 -7.906029224395752 1.314967751502991 0.000000000000000
12.854581832885742 -18.466421127319336 0.600971817970276 0.000000000000000
12.861599922180176 -16.918766021728516 0.567649781703949 0.000000000000000
12.865412712097168 -11.260437011718750 2.533851385116577 0.000000000000000
12.866122245788574 -11.169375419616699 1.012241244316101 0.000000000000000
12.866698265075684 -9.549383163452148 1.199165225028992 0.000000000000000
12.872161865234375 -14.380556106567383 3.299022436141968 0.000000000000000
12.875051498413086 -19.060764312744141 1.899170160293579 1.000000000000000
12.884220123291016 -16.641403198242188 0.764370143413544 0.000000000000000
12.885820388793945 -18.378273010253906 -1.168468117713928 1.000000000000000
12.887448310852051 -16.188980102539062 0.393698811531067 0.000000000000000
12.891169548034668 -19.829439163208008 2.895647048950195 1.000000000000000
12.899615287780762 -19.292512893676758 1.557733297348022 1.000000000000000
12.900874137878418 -9.106637001037598 1.431558132171631 0.000000000000000
12.903954505920410 -1.037774205207825 -1.048402190208435 0.000000000000000
12.912571907043457 -22.765375137329102 -1.110678672790527 1.000000000000000
12.913339614868164 -22.015533447265625 0.191553696990013 1.000000000000000
12.922083854675293 -21.799654006958008 2.092378616333008 1.000000000000000
12.927402496337891 -18.698810577392578 1.701280236244202 1.000000000000000
12.935336112976074 -15.372636795043945 0.922860085964203 0.000000000000000
12.937255859375000 -19.006605148315430 -0.092295557260513 1.000000000000000
12.942822456359863 -12.525834083557129 1.208950996398926 0.000000000000000
12.945744514465332 -9.547216415405273 0.924664318561554 0.000000000000000
12.949299812316895 -15.912535667419434 0.114582367241383 0.000000000000000
12.952195167541504 -18.526542663574219 1.517283082008362 1.000000000000000
12.954024314880371 -11.071214675903320 0.815532863140106 0.000000000000000
12.956477165222168 -10.469874382019043 -0.258776545524597 1.000000000000000
12.957994461059570 -19.322845458984375 1.651364684104919 1.000000000000000
12.958883285522461 -16.923788070678711 1.554086208343506 0.000000000000000
12.961049079895020 -19.410778045654297 1.882011651992798 1.000000000000000
12.963949203491211 -10.903516769409180 0.647793710231781 0.000000000000000
12.967072486877441 -10.716627120971680 0.999431133270264 0.000000000000000
12.968954086303711 -10.284225463867188 -0.098220966756344 0.000000000000000
12.969152450561523 -17.686397552490234 -0.424942940473557 0.000000000000000
12.971945762634277 -7.744496345520020 1.101501822471619 0.000000000000000
12.981225013732910 0.750989079475403 -1.380431652069092 1.000000000000000
12.982623100280762 -17.863800048828125 2.703640937805176 0.000000000000000
12.984020233154297 -7.952254772186279 1.286569833755493 0.000000000000000
12.985309600830078 -1.093600869178772 -1.080525875091553 0.000000000000000
12.987807273864746 -18.856451034545898 1.536838531494141 0.000000000000000
12.992278099060059 -22.155429840087891 -1.435952425003052 1.000000000000000
12.993270874023438 -18.050121307373047 1.836303353309631 1.000000000000000
12.996246337890625 -18.268581390380859 1.851114749908447 1.000000000000000
13.001553535461426 -20.663709640502930 2.988976716995239 1.000000000000000
13.005718231201172 -18.050132751464844 -1.200993061065674 1.000000000000000
13.006000518798828 -22.706079483032227 -0.205520898103714 1.000000000000000
13.006366729736328 -18.212726593017578 2.541977167129517 1.000000000000000
13.015162467956543 -13.131991386413574 2.460392475128174 0.000000000000000
13.016652107238770 -7.541239738464355 2.001872062683105 0.000000000000000
13.024372100830078 -16.960205078125000 -0.578638732433319 0.000000000000000
13.029603004455566 -7.660938739776611 2.240062952041626 0.000000000000000
13.032265663146973 -10.429241180419922 -0.740445911884308 0.000000000000000
13.035671234130859 -7.993903636932373 0.996899843215942 0.000000000000000
13.036746025085449 -18.823240280151367 0.567587196826935 1.000000000000000
13.045052528381348 -17.020315170288086 -0.703892111778259 0.000000000000000
13.046677589416504 -19.853357315063477 1.502958178520203 1.000000000000000
13.048652648925781 -11.172990798950195 1.632928013801575 0.000000000000000
13.059554100036621 -15.736454963684082 0.310538709163666 0.000000000000000
13.062130928039551 -15.254931449890137 0.999797403812408 1.000000000000000
13.062213897705078 -16.112081527709961 1.192330241203308 0.000000000000000
13.068515777587891 -17.167926788330078 -0.003765722271055 0.000000000000000
13.070368766784668 -16.584444046020508 -0.084764838218689 0.000000000000000
13.070916175842285 -11.077493667602539 1.315349459648132 0.000000000000000
13.072775840759277 -10.145401000976562 -0.098197229206562 0.000000000000000
13.072841644287109 -15.752465248107910 0.625428795814514 0.000000000000000
13.076396942138672 -12.666601181030273 1.186859965324402 0.000000000000000
13.086533546447754 -16.374452590942383 1.204955935478210 0.000000000000000
13.094330787658691 -16.977577209472656 1.232503056526184 1.000000000000000
13.096972465515137 -9.146432876586914 1.257228612899780 0.000000000000000
13.100154876708984 -17.232572555541992 0.245583519339561 1.000000000000000
13.113101959228516 -8.842235565185547 1.183642029762268 0.000000000000000
13.113409996032715 -17.012134552001953 -0.127464145421982 0.000000000000000
13.113982200622559 -18.531143188476562 1.978181004524231 0.000000000000000
13.117131233215332 -15.369591712951660 1.239393353462219 0.000000000000000
13.120346069335938 -22.876070022583008 -0.156493678689003 0.000000000000000
13.123646736145020 -22.336547851562500 -0.949951529502869 1.000000000000000
13.134412765502930 -15.858735084533691 1.866731524467468 0.000000000000000
13.134521484375000 -15.750003814697266 3.039331436157227 0.000000000000000
13.136421203613281 -10.999732971191406 1.315349459648132 0.000000000000000
13.137769699096680 -8.274576187133789 2.301048994064331 0.000000000000000
13.138803482055664 -22.893440246582031 -0.105960063636303 1.000000000000000
13.146523475646973 -8.290988922119141 2.656740665435791 0.000000000000000
13.149087905883789 -16.693918228149414 1.508346438407898 0.000000000000000
13.160947799682617 -9.839200019836426 3.417923450469971 0.000000000000000
13.167291641235352 -19.597951889038086 2.057349681854248 1.000000000000000
13.169474601745605 -22.594755172729492 -1.361445188522339 1.000000000000000
13.170765876770020 -16.702238082885742 1.263700246810913 0.000000000000000
13.179700851440430 -17.195997238159180 1.287185549736023 0.000000000000000
13.192473411560059 -8.678694725036621 1.242792248725891 0.000000000000000
13.198427200317383 -9.834578514099121 1.263605117797852 0.000000000000000
13.201991081237793 -12.866198539733887 1.237346649169922 0.000000000000000
13.214059829711914 -15.512199401855469 3.019980192184448 0.000000000000000
13.216878890991211 -19.272443771362305 3.994546175003052 0.000000000000000
13.222537040710449 -17.143804550170898 1.578518748283386 0.000000000000000
13.225170135498047 -20.012908935546875 -0.050240308046341 1.000000000000000
13.226596832275391 -20.143993377685547 -1.115366816520691 0.000000000000000
13.236206054687500 -20.038734436035156 -0.142512977123260 1.000000000000000
13.240882873535156 -10.832907676696777 1.115299582481384 0.000000000000000
13.248886108398438 -20.683284759521484 1.790849447250366 1.000000000000000
13.249598503112793 -22.366411209106445 -0.903268575668335 1.000000000000000
13.251910209655762 -7.432367324829102 1.283875465393066 0.000000000000000
13.255352973937988 -20.378734588623047 0.275804996490479 1.000000000000000
13.261083602905273 -14.405163764953613 1.775002121925354 0.000000000000000
13.264694213867188 -12.407670974731445 2.063014745712280 0.000000000000000
13.271027565002441 -18.108675003051758 1.956305265426636 0.000000000000000
13.275782585144043 -18.626398086547852 0.698843359947205 0.000000000000000
13.280683517456055 -17.293970108032227 1.085517048835754 1.000000000000000
13.283803939819336 -17.281797409057617 2.668642520904541 0.000000000000000
13.285108566284180 -19.058637619018555 -0.004054748918861 0.000000000000000
13.293782234191895 -10.447656631469727 1.473305463790894 0.000000000000000
13.306025505065918 -20.936231613159180 3.037099838256836 1.000000000000000
13.308286666870117 -10.814579010009766 1.382735252380371 0.000000000000000
13.317959785461426 -19.646898269653320 2.695913314819336 1.000000000000000
13.319525718688965 -7.032099246978760 1.127221226692200 0.000000000000000
13.322730064392090 -18.115484237670898 1.813212513923645 1.000000000000000
13.335572242736816 -7.040571212768555 1.433448910713196 0.000000000000000
13.337050437927246 -20.768211364746094 0.706672549247742 1.000000000000000
13.348926544189453 -24.245508193969727 -1.014884114265442 1.000000000000000
13.351771354675293 -17.399736404418945 1.726100325584412 1.000000000000000
13.354170799255371 -22.369855880737305 -1.356246471405029 1.000000000000000
13.363605499267578 -22.744958877563477 -1.373298287391663 1.000000000000000
13.369169235229492 -16.820001602172852 0.656455934047699 0.000000000000000
13.373573303222656 -8.360631942749023 1.180358290672302 0.000000000000000
13.379796981811523 -7.689374446868896 2.053580999374390 0.000000000000000
13.384446144104004 -16.339794158935547 1.051507592201233 1.000000000000000
13.390575408935547 -14.331523895263672 2.906804323196411 0.000000000000000
13.398683547973633 -16.511791229248047 2.021287918090820 0.000000000000000
13.406601905822754 -8.082911491394043 1.080957651138306 0.000000000000000
13.410814285278320 -19.906324386596680 1.981785655021667 1.000000000000000
13.418290138244629 -7.518910884857178 1.091752886772156 0.000000000000000
13.420098304748535 -20.320219039916992 -0.097754940390587 1.000000000000000
13.420948028564453 -16.152984619140625 2.385332584381104 0.000000000000000
13.422054290771484 -19.559907913208008 1.409356832504272 0.000000000000000
13.424298286437988 -6.980505943298340 2.242408514022827 0.000000000000000
13.428111076354980 -10.365700721740723 1.433413863182068 0.000000000000000
13.428510665893555 -20.390174865722656 -0.238634377717972 1.000000000000000
13.438174247741699 -13.337233543395996 2.805942773818970 0.000000000000000
13.444047927856445 -19.286649703979492 2.359037160873413 1.000000000000000
13.446029663085938 -16.945215225219727 -0.086836189031601 0.000000000000000
13.448102951049805 -9.039475440979004 1.840461969375610 0.000000000000000
13.457010269165039 -6.631008625030518 1.122743368148804 0.000000000000000
13.460160255432129 -16.003719329833984 3.099144935607910 0.000000000000000
13.463242530822754 -16.222888946533203 0.968378961086273 0.000000000000000
13.469059944152832 -17.261953353881836 2.913636684417725 0.000000000000000
13.471343994140625 -10.071986198425293 2.492803335189819 0.000000000000000
13.473415374755859 -20.349935531616211 0.698773562908173 1.000000000000000
13.476925849914551 -14.734307289123535 1.494403958320618 0.000000000000000
13.479498863220215 -15.617250442504883 2.525731563568115 0.000000000000000
13.489412307739258 -10.158358573913574 3.512413263320923 0.000000000000000
13.497147560119629 -18.341909408569336 1.528534173965454 1.000000000000000
13.510593414306641 -12.707717895507812 1.280726909637451 0.000000000000000
13.510746955871582 -15.969710350036621 1.896345138549805 0.000000000000000
13.512963294982910 -7.750853061676025 2.662806272506714 0.000000000000000
13.516098976135254 -18.627916336059570 -0.888164937496185 1.000000000000000
13.517523765563965 -8.652132034301758 1.325140118598938 0.000000000000000
13.523869514465332 -16.801076889038086 -0.086579278111458 0.000000000000000
13.527914047241211 -17.834001541137695 1.114355444908142 1.000000000000000
13.532918930053711 -12.215922355651855 1.223684549331665 0.000000000000000
13.534184455871582 -15.753842353820801 3.078034162521362 0.000000000000000
13.538335800170898 -11.791947364807129 2.389161109924316 0.000000000000000
13.547918319702148 -16.013647079467773 3.585454225540161 0.000000000000000
13.555955886840820 -18.726129531860352 1.462549328804016 0.000000000000000
13.557591438293457 -20.038034439086914 -1.212895870208740 1.000000000000000
13.558588981628418 -20.125673294067383 2.970991373062134 1.000000000000000
13.572566032409668 -10.015336036682129 2.499839782714844 0.000000000000000
13.574522018432617 -14.420557022094727 1.987230300903320 0.000000000000000
13.575571060180664 -17.903312683105469 1.464774012565613 0.000000000000000
13.584032058715820 -12.687719345092773 1.283482193946838 0.000000000000000
13.587244987487793 -17.004615783691406 3.225808143615723 0.000000000000000
13.605981826782227 -14.797428131103516 2.461081266403198 0.000000000000000
13.609240531921387 -19.990846633911133 -0.143509909510612 0.000000000000000
13.613587379455566 -12.654511451721191 0.889533162117004 0.000000000000000
13.614546775817871 -22.758157730102539 -1.227439880371094 1.000000000000000
13.615136146545410 -19.693580627441406 1.422404170036316 0.000000000000000
13.618201255798340 -19.830175399780273 -0.004198564216495 1.000000000000000
13.624225616455078 -14.340889930725098 2.246744871139526 0.000000000000000
13.625888824462891 -9.975564956665039 1.231227278709412 0.000000000000000
13.630992889404297 -16.280530929565430 2.599617242813110 0.000000000000000
13.634152412414551 -16.801969528198242 1.285525083541870 0.000000000000000
13.635951995849609 -10.170960426330566 1.338826179504395 0.000000000000000
13.636158943176270 -8.733435630798340 2.767943859100342 0.000000000000000
13.637552261352539 -21.537502288818359 2.895443439483643 1.000000000000000
13.643092155456543 -16.439603805541992 -1.317868947982788 1.000000000000000
13.646464347839355 -8.147196769714355 2.716722965240479 0.000000000000000
13.654306411743164 -16.336740493774414 -1.313435792922974 1.000000000000000
13.659878730773926 -20.572231292724609 3.286151647567749 0.000000000000000
13.668696403503418 -8.877232551574707 1.219763159751892 0.000000000000000
13.670372009277344 -16.373958587646484 1.267258763313293 0.000000000000000
13.677752494812012 -7.988150119781494 1.338436841964722 0.000000000000000
13.679549217224121 -8.461529731750488 1.713313102722168 0.000000000000000
13.680026054382324 -14.701895713806152 2.458650827407837 0.000000000000000
13.690302848815918 -16.458461761474609 -0.826156914234161 1.000000000000000
13.691489219665527 -22.260421752929688 -1.410789489746094 1.000000000000000
13.693372726440430 -8.757949829101562 1.216479539871216 0.000000000000000
13.693828582763672 -11.601710319519043 0.100240021944046 0.000000000000000
13.714294433593750 -8.651067733764648 2.403083324432373 0.000000000000000
13.715192794799805 -2.158043146133423 -0.883234739303589 1.000000000000000
13.717861175537109 -13.434460639953613 2.350738763809204 0.000000000000000
13.730732917785645 -23.126106262207031 -0.831118583679199 1.000000000000000
13.733651161193848 -6.090504646301270 1.999233961105347 0.000000000000000
13.751362800598145 -14.576272010803223 2.276087522506714 0.000000000000000
13.762990951538086 -14.833571434020996 2.998869657516479 0.000000000000000
13.768897056579590 -7.659263134002686 1.331364035606384 0.000000000000000
13.770858764648438 -10.143110275268555 1.490319848060608 0.000000000000000
13.773084640502930 -16.415285110473633 2.623435974121094 0.000000000000000
13.777917861938477 -18.893547058105469 1.840336680412292 1.000000000000000
13.786371231079102 -8.374336242675781 1.363023161888123 0.000000000000000
13.787283897399902 -19.186328887939453 2.516587495803833 1.000000000000000
13.788099288940430 -6.519371986389160 1.053127884864807 0.000000000000000
13.806673049926758 -14.564971923828125 1.540697932243347 0.000000000000000
13.819211006164551 -8.863603591918945 1.387272477149963 0.000000000000000
13.831075668334961 -16.464550018310547 -0.747144639492035 0.000000000000000
13.832390785217285 -7.160538196563721 1.659083604812622 0.000000000000000
13.836934089660645 -6.704535484313965 1.269514560699463 0.000000000000000
13.857428550720215 -18.908834457397461 0.220951214432716 1.000000000000000
13.864237785339355 -11.423918724060059 2.040443420410156 0.000000000000000
13.871584892272949 -14.806912422180176 2.304527282714844 0.000000000000000
13.872920989990234 -8.966554641723633 2.198154926300049 0.000000000000000
13.887506484985352 -13.780303001403809 3.344177484512329 0.000000000000000
13.888633728027344 -19.001447677612305 1.988794445991516 1.000000000000000
13.888742446899414 -8.421925544738770 1.988600373268127 0.000000000000000
13.890827178955078 -10.347117424011230 1.162607431411743 0.000000000000000
13.894331932067871 -9.753510475158691 1.106712341308594 0.000000000000000
13.897449493408203 -7.396250724792480 3.274559497833252 0.000000000000000
13.903365135192871 -6.119944095611572 1.224882960319519 0.000000000000000
13.918388366699219 -16.240009307861328 2.618574857711792 0.000000000000000
13.919498443603516 -20.446588516235352 0.233127862215042 1.000000000000000
13.932783126831055 -19.509981155395508 1.933128952980042 1.000000000000000
13.934513092041016 -11.421929359436035 1.807916402816772 0.000000000000000
13.947591781616211 -5.956633567810059 2.018229007720947 0.000000000000000
13.965302467346191 -13.096872329711914 1.819916129112244 0.000000000000000
13.969569206237793 -11.450664520263672 1.386689424514771 0.000000000000000
13.971117973327637 -20.448675155639648 -1.050981283187866 1.000000000000000
13.971230506896973 -6.592837333679199 1.891382098197937 0.000000000000000
13.977724075317383 -20.532117843627930 -1.293029785156250 1.000000000000000
13.991284370422363 -20.389444351196289 -0.431632906198502 1.000000000000000
13.992005348205566 -2.946282386779785 -1.323946118354797 0.000000000000000
13.996941566467285 -20.368719100952148 2.153532981872559 1.000000000000000
13.999704360961914 -5.396984100341797 1.836939930915833 0.000000000000000
14.004699707031250 -6.431967735290527 1.123607516288757 0.000000000000000
14.011957168579102 -17.511064529418945 3.323737382888794 0.000000000000000
14.012022972106934 -19.690618515014648 -1.258094310760498 1.000000000000000
14.022843360900879 -8.124179840087891 1.369422197341919 0.000000000000000
14.042328834533691 -11.564080238342285 1.221005678176880 0.000000000000000
14.042598724365234 -9.189918518066406 0.997058808803558 0.000000000000000
14.051056861877441 -16.149085998535156 3.172445297241211 0.000000000000000
14.052912712097168 -5.524825572967529 1.435341596603394 0.000000000000000
14.055413246154785 -8.005365371704102 1.148110508918762 0.000000000000000
14.066707611083984 -9.950939178466797 1.455979466438293 0.000000000000000
14.072072029113770 -14.099607467651367 2.650871276855469 0.000000000000000
14.075402259826660 -8.550578117370605 1.073664546012878 0.000000000000000
14.075669288635254 -11.883075714111328 1.751025915145874 0.000000000000000
14.082492828369141 -8.423524856567383 1.386598944664001 0.000000000000000
14.089659690856934 -9.012099266052246 2.478729486465454 0.000000000000000
14.090161323547363 -5.539469718933105 3.149116277694702 0.000000000000000
14.096354484558105 -8.519914627075195 1.042044281959534 0.000000000000000
14.111137390136719 -12.336846351623535 1.402757644653320 0.000000000000000
14.133537292480469 -8.563619613647461 1.570851087570190 0.000000000000000
14.133788108825684 -6.483489990234375 1.478114128112793 0.000000000000000
14.149413108825684 -19.960281372070312 2.778975486755371 1.000000000000000
14.153732299804688 -20.337270736694336 1.758699178695679 1.000000000000000
14.158654212951660 -13.336843490600586 2.209276437759399 0.000000000000000
14.160911560058594 -11.271765708923340 0.866204857826233 0.000000000000000
14.166961669921875 -5.760096549987793 2.035113573074341 0.000000000000000
14.168690681457520 -19.322242736816406 1.746929049491882 1.000000000000000
14.173444747924805 -12.826473236083984 1.665672063827515 0.000000000000000
14.175154685974121 -11.396303176879883 3.108966350555420 0.000000000000000
14.175956726074219 -5.881151199340820 0.793584644794464 0.000000000000000
14.185009002685547 -6.900418281555176 0.967564344406128 0.000000000000000
14.194503784179688 -5.242821693420410 1.438369631767273 0.000000000000000
14.196159362792969 -12.324010848999023 1.786985039710999 0.000000000000000
14.220650672912598 -20.060775756835938 -1.043519020080566 1.000000000000000
14.224276542663574 -8.729970932006836 1.777710556983948 0.000000000000000
14.233925819396973 -5.759839534759521 0.941850781440735 0.000000000000000
14.236191749572754 -13.183780670166016 2.375529289245605 0.000000000000000
14.249802589416504 -12.425641059875488 2.147431373596191 0.000000000000000
14.257330894470215 -3.417882204055786 -1.357505798339844 0.000000000000000
14.259589195251465 -14.348465919494629 1.833867788314819 0.000000000000000
14.260338783264160 -16.947299957275391 2.222455024719238 0.000000000000000
