# This PCD file was generated using the MATLAB® pcwrite function
# from Computer Vision Toolbox®.
# .PCD v.7 - Point Cloud Data file format
VERSION .7
FIELDS x y z intensity
SIZE 8 8 8 8
TYPE F F F F
COUNT 1 1 1 1
WIDTH 639
HEIGHT 1
VIEWPOINT 0 0 0 1 0 0 0
POINTS 639
DATA ascii
13.933070182800293 -15.730758666992188 1.046137690544128 1.000000000000000
13.934528350830078 -6.584143638610840 0.707929849624634 0.000000000000000
13.935283660888672 -16.346138000488281 -0.044987574219704 0.000000000000000
13.946520805358887 -5.866014957427979 1.015540361404419 0.000000000000000
13.948178291320801 -8.865789413452148 1.268810033798218 0.000000000000000
13.955243110656738 -6.559699535369873 2.051998138427734 0.000000000000000
13.969310760498047 -12.086094856262207 1.275491476058960 0.000000000000000
13.970576286315918 -14.980561256408691 1.856980800628662 0.000000000000000
13.985909461975098 -18.676315307617188 1.926489114761353 0.000000000000000
13.989216804504395 -9.872328758239746 0.786486804485321 0.000000000000000
13.990318298339844 -11.996235847473145 1.521640062332153 0.000000000000000
13.995246887207031 -18.589862823486328 1.966228961944580 1.000000000000000
13.995608329772949 -10.512784957885742 0.366659909486771 0.000000000000000
13.997397422790527 -6.519361495971680 1.096000909805298 0.000000000000000
13.998255729675293 -6.061067104339600 1.867563605308533 0.000000000000000
14.006100654602051 -5.681308269500732 1.609938144683838 0.000000000000000
14.013107299804688 -9.714718818664551 -0.166660934686661 0.000000000000000
14.027553558349609 -9.914428710937500 1.418288350105286 0.000000000000000
14.045157432556152 -15.848388671875000 1.421381473541260 0.000000000000000
14.045918464660645 -5.439029693603516 1.365469574928284 0.000000000000000
14.046331405639648 -8.337448120117188 3.397559165954590 0.000000000000000
14.049796104431152 -16.420579910278320 -0.626297116279602 1.000000000000000
14.054362297058105 -16.312042236328125 1.445222973823547 0.000000000000000
14.065620422363281 -10.190043449401855 1.434087395668030 0.000000000000000
14.067370414733887 -9.968362808227539 1.157249808311462 0.000000000000000
14.085275650024414 -20.350067138671875 0.375828951597214 0.000000000000000
14.098711967468262 -5.661643981933594 1.195716738700867 0.000000000000000
14.099343299865723 -8.302497863769531 1.224539637565613 0.000000000000000
14.151038169860840 -7.400499820709229 1.813827753067017 0.000000000000000
14.173970222473145 -6.125989913940430 1.096000909805298 0.000000000000000
14.174450874328613 -6.074006080627441 1.303072929382324 0.000000000000000
14.184003829956055 -9.833194732666016 2.113039731979370 0.000000000000000
14.195566177368164 -6.024490833282471 1.303072929382324 0.000000000000000
14.196625709533691 -5.492830276489258 3.166222095489502 0.000000000000000
14.197120666503906 -5.383908271789551 1.107028245925903 0.000000000000000
14.219167709350586 -19.840631484985352 2.988490581512451 1.000000000000000
14.223787307739258 -5.836790561676025 1.542739272117615 0.000000000000000
14.234427452087402 -4.753933429718018 1.210094332695007 0.000000000000000
14.235900878906250 -23.069696426391602 -1.306857824325562 1.000000000000000
14.256841659545898 -14.373769760131836 1.436978936195374 0.000000000000000
14.265274047851562 -9.790327072143555 3.598757266998291 0.000000000000000
14.269542694091797 -5.813997268676758 2.633826255798340 0.000000000000000
14.276348114013672 -4.878979682922363 1.216524124145508 0.000000000000000
14.276904106140137 -19.965318679809570 3.005017757415771 1.000000000000000
14.285104751586914 -4.715497970581055 1.708645582199097 0.000000000000000
14.294979095458984 -8.496513366699219 2.212928771972656 0.000000000000000
14.298988342285156 -19.091609954833984 1.739075660705566 0.000000000000000
14.302479743957520 -8.222297668457031 1.437540650367737 0.000000000000000
14.309979438781738 -17.249311447143555 1.029499173164368 1.000000000000000
14.314785003662109 -5.690468788146973 1.212350010871887 0.000000000000000
14.316293716430664 -9.679018020629883 1.426846146583557 0.000000000000000
14.329010963439941 -6.186469554901123 1.910825729370117 0.000000000000000
14.332631111145020 -9.836554527282715 1.300961375236511 0.000000000000000
14.341531753540039 -9.171437263488770 1.339767575263977 0.000000000000000
14.345318794250488 -5.207663536071777 1.142147421836853 0.000000000000000
14.358996391296387 -9.924856185913086 1.306334853172302 0.000000000000000
14.374380111694336 -5.714159488677979 1.647644519805908 0.000000000000000
14.377729415893555 -6.803691387176514 2.357343673706055 0.000000000000000
14.388796806335449 -6.934758663177490 1.955546140670776 0.000000000000000
14.397984504699707 -1.194355964660645 -0.363180160522461 0.000000000000000
14.398588180541992 -12.092131614685059 2.786591529846191 0.000000000000000
14.400385856628418 -7.331663608551025 1.978392481803894 0.000000000000000
14.407507896423340 -10.017580032348633 1.760791540145874 0.000000000000000
14.425779342651367 -4.186162471771240 1.240220546722412 0.000000000000000
14.433879852294922 -17.979095458984375 1.547553896903992 0.000000000000000
14.436161994934082 -16.450279235839844 -1.350132226943970 1.000000000000000
14.438614845275879 -5.363362789154053 0.885409593582153 0.000000000000000
14.443884849548340 -5.976651668548584 1.665014982223511 0.000000000000000
14.455130577087402 -0.089816339313984 -1.450486421585083 0.000000000000000
14.463743209838867 -22.511444091796875 -0.364287853240967 1.000000000000000
14.464833259582520 -6.130425453186035 1.145422339439392 0.000000000000000
14.488511085510254 -0.500380158424377 -1.062060236930847 0.000000000000000
14.511869430541992 -9.843015670776367 1.413920044898987 0.000000000000000
14.513257980346680 -14.838054656982422 1.473229050636292 0.000000000000000
14.529239654541016 -11.651778221130371 2.115380048751831 0.000000000000000
14.539743423461914 -19.093742370605469 2.408158779144287 1.000000000000000
14.560200691223145 -0.078268900513649 -1.404572963714600 0.000000000000000
14.561201095581055 -8.798442840576172 2.082902193069458 0.000000000000000
14.566339492797852 0.472020864486694 -1.208443760871887 0.000000000000000
14.567642211914062 -8.646881103515625 1.267825365066528 0.000000000000000
14.576225280761719 -6.366984844207764 1.098317027091980 0.000000000000000
14.580417633056641 -8.517376899719238 2.067347288131714 0.000000000000000
14.590588569641113 -6.568904876708984 1.817439198493958 0.000000000000000
14.599377632141113 -6.067570209503174 1.152693986892700 0.000000000000000
14.602725982666016 -5.113515377044678 1.217685222625732 0.000000000000000
14.609799385070801 -6.516314506530762 1.816987752914429 0.000000000000000
14.617108345031738 -6.442646503448486 1.103001236915588 0.000000000000000
14.634676933288574 -7.253895282745361 1.380199790000916 0.000000000000000
14.642784118652344 -5.315649986267090 1.480763673782349 0.000000000000000
14.643156051635742 -8.926998138427734 1.947901129722595 0.000000000000000
14.644979476928711 -9.350736618041992 1.401060342788696 0.000000000000000
14.659102439880371 -19.213590621948242 -0.653944015502930 1.000000000000000
14.663409233093262 -6.007624626159668 1.687893033027649 0.000000000000000
14.664134025573730 -5.323400020599365 0.926840126514435 0.000000000000000
14.684906959533691 -16.384420394897461 -1.357274532318115 1.000000000000000
14.695230484008789 -9.340632438659668 1.747213006019592 0.000000000000000
14.710416793823242 -9.407340049743652 1.859902262687683 0.000000000000000
14.727843284606934 -8.688524246215820 1.114779233932495 0.000000000000000
14.734771728515625 -7.578496932983398 1.881993055343628 0.000000000000000
14.736453056335449 -15.987087249755859 2.181720018386841 0.000000000000000
14.741417884826660 -4.224806308746338 1.457674026489258 0.000000000000000
14.748331069946289 -4.394425868988037 1.884090662002563 0.000000000000000
14.755098342895508 -9.593425750732422 1.765983223915100 0.000000000000000
14.756312370300293 -2.885445594787598 2.228334903717041 0.000000000000000
14.764074325561523 -3.009420156478882 1.156748175621033 0.000000000000000
14.768335342407227 -7.569703102111816 2.836687326431274 0.000000000000000
14.771494865417480 -6.843855857849121 1.734072923660278 0.000000000000000
14.773779869079590 -9.077519416809082 1.398166775703430 0.000000000000000
14.783710479736328 -7.336124420166016 1.362662792205811 0.000000000000000
14.795654296875000 -3.108764648437500 2.011897325515747 0.000000000000000
14.796264648437500 -17.013956069946289 -0.090513236820698 0.000000000000000
14.797030448913574 -7.163043975830078 1.262074112892151 0.000000000000000
14.797734260559082 -18.252824783325195 1.713188886642456 0.000000000000000
14.798750877380371 -6.302740573883057 1.713313102722168 0.000000000000000
14.801806449890137 -9.216181755065918 1.580708861351013 0.000000000000000
14.805072784423828 -10.856323242187500 2.247687101364136 0.000000000000000
14.805075645446777 -4.994542121887207 1.048757672309875 0.000000000000000
14.809888839721680 -2.989425659179688 1.247461795806885 0.000000000000000
14.814166069030762 -15.982169151306152 -0.045641023665667 0.000000000000000
14.815237998962402 -2.618191719055176 1.242195487022400 0.000000000000000
14.826034545898438 -11.055815696716309 1.241364836692810 0.000000000000000
14.838210105895996 -3.117706298828125 0.813193917274475 0.000000000000000
14.842699050903320 -7.357004642486572 2.204486370086670 0.000000000000000
14.842699050903320 0.370005846023560 -0.373232215642929 0.000000000000000
14.844838142395020 -5.166033744812012 0.903544783592224 0.000000000000000
14.845498085021973 -23.894889831542969 -0.977441310882568 0.000000000000000
14.850587844848633 -17.867305755615234 -1.343685150146484 0.000000000000000
14.853302955627441 -6.918635368347168 1.384578108787537 0.000000000000000
14.853830337524414 -4.450994014739990 1.190428018569946 0.000000000000000
14.854060173034668 -2.981346607208252 1.613751173019409 0.000000000000000
14.858949661254883 -15.085778236389160 1.502965569496155 0.000000000000000
14.859862327575684 -8.542038917541504 1.282751560211182 0.000000000000000
14.860364913940430 -4.469916820526123 1.557116389274597 0.000000000000000
14.871886253356934 0.318792760372162 -0.373935878276825 0.000000000000000
14.875765800476074 -6.975283622741699 1.561766743659973 0.000000000000000
14.877400398254395 0.266958862543106 -0.602836728096008 0.000000000000000
14.879898071289062 -18.448106765747070 -0.368189632892609 1.000000000000000
14.886068344116211 -5.760179519653320 2.365553617477417 0.000000000000000
14.892697334289551 -9.393321990966797 1.766781926155090 0.000000000000000
14.896157264709473 -18.761962890625000 -0.418159663677216 1.000000000000000
14.901625633239746 -16.761699676513672 -0.046973057091236 1.000000000000000
14.909015655517578 -11.538798332214355 0.938540697097778 0.000000000000000
14.914389610290527 -18.310323715209961 3.142633199691772 0.000000000000000
14.918612480163574 -9.216800689697266 1.589737415313721 0.000000000000000
14.928242683410645 -9.620227813720703 1.891677260398865 0.000000000000000
14.933318138122559 -6.311459064483643 1.244621872901917 0.000000000000000
14.936432838439941 -3.017681837081909 1.865619301795959 0.000000000000000
14.940067291259766 -16.050439834594727 0.122468426823616 0.000000000000000
14.942080497741699 -5.141470909118652 0.908365547657013 0.000000000000000
14.953022003173828 -17.073482513427734 -0.439743101596832 1.000000000000000
14.956685066223145 -5.571851730346680 1.954087853431702 0.000000000000000
14.965210914611816 0.282645016908646 -0.060085244476795 0.000000000000000
14.975629806518555 -18.552211761474609 1.876427888870239 1.000000000000000
14.979491233825684 -9.606326103210449 2.178662300109863 0.000000000000000
14.980025291442871 -2.468914985656738 1.617140412330627 0.000000000000000
14.983465194702148 -7.554256916046143 2.232979059219360 0.000000000000000
14.990103721618652 0.230770409107208 -0.060181587934494 0.000000000000000
14.994500160217285 -5.289811134338379 1.067241549491882 0.000000000000000
15.002547264099121 -16.837898254394531 0.039360646158457 1.000000000000000
15.007560729980469 -4.551349639892578 0.961931824684143 0.000000000000000
15.012750625610352 -3.967100620269775 1.901103973388672 0.000000000000000
15.018129348754883 -4.430330753326416 2.083656549453735 0.000000000000000
15.021427154541016 -15.045565605163574 2.829214096069336 0.000000000000000
15.027760505676270 -2.964402914047241 1.631545186042786 0.000000000000000
15.034794807434082 -5.558257102966309 1.707381725311279 0.000000000000000
15.035988807678223 -9.368547439575195 2.357502698898315 0.000000000000000
15.040647506713867 -2.586888313293457 0.965519905090332 0.000000000000000
15.040995597839355 -19.490282058715820 1.842481374740601 0.000000000000000
15.042927742004395 -17.297590255737305 0.964796006679535 1.000000000000000
15.048714637756348 -2.098355531692505 1.725799918174744 0.000000000000000
15.058099746704102 -4.217331409454346 0.838686585426331 0.000000000000000
15.066478729248047 -4.786894321441650 2.103706836700439 0.000000000000000
15.066780090332031 -18.799016952514648 2.566156625747681 1.000000000000000
15.075251579284668 -18.202140808105469 -1.184856653213501 1.000000000000000
15.084069252014160 -4.661222934722900 1.181552410125732 0.000000000000000
15.088183403015137 -5.116168498992920 1.598650097846985 0.000000000000000
15.092250823974609 -2.373639345169067 1.735279798507690 0.000000000000000
15.100686073303223 -4.569520473480225 2.099485635757446 0.000000000000000
15.109242439270020 -7.213861465454102 1.382411479949951 0.000000000000000
15.115938186645508 -2.725778579711914 1.268198013305664 0.000000000000000
15.124833106994629 -7.757764816284180 2.519191265106201 0.000000000000000
15.129636764526367 -18.707567214965820 3.201729059219360 0.000000000000000
15.133260726928711 -16.456140518188477 1.630001664161682 0.000000000000000
15.137806892395020 -17.283254623413086 -0.180451244115829 1.000000000000000
15.142185211181641 -17.338254928588867 -0.622891426086426 1.000000000000000
15.142548561096191 -7.394677162170410 1.914044380187988 0.000000000000000
15.142843246459961 -1.918624639511108 0.701138734817505 0.000000000000000
15.148309707641602 -13.001108169555664 3.412247180938721 0.000000000000000
15.151163101196289 -18.899572372436523 -0.795093655586243 0.000000000000000
15.158229827880859 -18.793182373046875 -0.746116459369659 0.000000000000000
15.158547401428223 -1.635503053665161 -0.881778895854950 0.000000000000000
15.162777900695801 -2.006448984146118 0.526093602180481 0.000000000000000
15.163898468017578 -9.084753036499023 1.493700861930847 0.000000000000000
15.164674758911133 -10.329907417297363 1.373203873634338 0.000000000000000
15.164684295654297 -1.554278492927551 1.258652687072754 0.000000000000000
15.166260719299316 -17.356037139892578 0.837105095386505 0.000000000000000
15.167428970336914 -2.554215908050537 1.638323783874512 0.000000000000000
15.175218582153320 -2.803246974945068 2.053580999374390 0.000000000000000
15.181242942810059 -15.970874786376953 -0.215373009443283 1.000000000000000
15.183983802795410 -16.612274169921875 0.298548668622971 1.000000000000000
15.189721107482910 -12.576750755310059 2.922637224197388 0.000000000000000
15.208651542663574 -9.316953659057617 1.695383548736572 0.000000000000000
15.215552330017090 -8.469563484191895 2.131997346878052 0.000000000000000
15.215873718261719 -5.284438610076904 1.531106591224670 0.000000000000000
15.216277122497559 -16.780040740966797 -0.090930715203285 0.000000000000000
15.228130340576172 -6.651741027832031 2.211345672607422 0.000000000000000
15.232460021972656 -5.743110656738281 1.312650084495544 0.000000000000000
15.233839035034180 -8.899083137512207 1.320365428924561 0.000000000000000
15.239174842834473 -4.442391395568848 1.943393826484680 0.000000000000000
15.250429153442383 -7.151614189147949 2.496321439743042 0.000000000000000
15.271390914916992 -10.555497169494629 1.764652490615845 0.000000000000000
15.278063774108887 -4.752152919769287 1.290145635604858 0.000000000000000
15.286058425903320 -9.291877746582031 2.651132345199585 0.000000000000000
15.287155151367188 -16.608356475830078 1.689339280128479 0.000000000000000
15.288840293884277 -11.043706893920898 3.922955274581909 0.000000000000000
15.288896560668945 -16.211704254150391 -0.602983176708221 1.000000000000000
15.292009353637695 -2.108885288238525 1.889923810958862 0.000000000000000
15.293861389160156 -4.590996265411377 1.010222196578979 0.000000000000000
15.296314239501953 -10.281022071838379 1.557355642318726 0.000000000000000
15.300202369689941 -17.893987655639648 -0.637065291404724 0.000000000000000
15.302519798278809 -2.992805719375610 1.317555308341980 0.000000000000000
15.304301261901855 -17.195892333984375 -0.004017747938633 1.000000000000000
15.306283950805664 -7.872441291809082 1.387879252433777 0.000000000000000
15.306454658508301 -17.486883163452148 -0.137908130884171 1.000000000000000
15.309867858886719 -17.043966293334961 0.788040399551392 1.000000000000000
15.316642761230469 -3.608282804489136 1.329680085182190 0.000000000000000
15.317896842956543 -18.445251464843750 -0.418508708477020 1.000000000000000
15.322138786315918 -15.706111907958984 -0.298726916313171 1.000000000000000
15.322610855102539 -17.619192123413086 -0.811316549777985 0.000000000000000
15.323264122009277 -18.890274047851562 -1.172608852386475 1.000000000000000
15.333477020263672 -5.445535659790039 3.384526252746582 0.000000000000000
15.353078842163086 -16.243373870849609 -0.475990712642670 1.000000000000000
15.354249954223633 -6.467265605926514 1.021930217742920 0.000000000000000
15.376796722412109 -13.866726875305176 3.068651914596558 0.000000000000000
15.377017021179199 -8.899766921997070 1.782756447792053 0.000000000000000
15.384689331054688 -16.273403167724609 -0.261886298656464 1.000000000000000
15.385277748107910 -18.401891708374023 0.686753332614899 1.000000000000000
15.385908126831055 -16.715644836425781 0.650463819503784 1.000000000000000
15.398646354675293 -16.655828475952148 0.170239925384521 1.000000000000000
15.399460792541504 -18.468580245971680 0.272810071706772 1.000000000000000
15.400468826293945 -14.059604644775391 1.817065238952637 0.000000000000000
15.405406951904297 -10.752557754516602 2.784245729446411 0.000000000000000
15.412606239318848 -16.457597732543945 -0.610124170780182 1.000000000000000
15.422816276550293 -16.522747039794922 -1.437859416007996 0.000000000000000
15.423610687255859 -4.766147136688232 1.534513354301453 0.000000000000000
15.423676490783691 -17.751667022705078 -0.862299740314484 1.000000000000000
15.425933837890625 -6.674118518829346 2.236672639846802 0.000000000000000
15.426665306091309 -10.908141136169434 2.800078630447388 0.000000000000000
15.430489540100098 -17.090448379516602 1.013377189636230 1.000000000000000
15.431338310241699 -18.966604232788086 -1.414125800132751 1.000000000000000
15.435349464416504 -17.713209152221680 -1.087441086769104 1.000000000000000
15.437599182128906 -17.153619766235352 0.926883876323700 1.000000000000000
15.438009262084961 -15.943032264709473 -0.387373626232147 1.000000000000000
15.439888954162598 -16.556095123291016 -0.786592304706573 1.000000000000000
15.441368103027344 -5.302423000335693 1.551925182342529 0.000000000000000
15.446848869323730 -16.000150680541992 -0.430909484624863 1.000000000000000
15.454494476318359 -17.685888290405273 0.491979330778122 1.000000000000000
15.461587905883789 -8.793757438659668 1.894642949104309 0.000000000000000
15.478292465209961 -1.659070372581482 1.014855027198792 0.000000000000000
15.493867874145508 -5.624611854553223 3.428512811660767 0.000000000000000
15.498087882995605 -17.745775222778320 -1.362623214721680 1.000000000000000
15.501218795776367 -19.678735733032227 2.068351030349731 1.000000000000000
15.507867813110352 -11.660997390747070 1.489565968513489 0.000000000000000
15.508270263671875 -3.059189081192017 1.244047522544861 0.000000000000000
15.516730308532715 -8.646435737609863 1.610322237014771 0.000000000000000
15.520338058471680 -3.305179119110107 3.300625562667847 0.000000000000000
15.521610260009766 -18.295331954956055 0.410413026809692 1.000000000000000
15.522005081176758 -7.893846988677979 1.471472263336182 0.000000000000000
15.533785820007324 -3.888561725616455 2.373176813125610 0.000000000000000
15.543744087219238 -3.364651918411255 1.385802984237671 0.000000000000000
15.549663543701172 -16.950466156005859 0.791203022003174 1.000000000000000
15.550987243652344 -16.721973419189453 -0.969066739082336 1.000000000000000
15.577642440795898 -10.080714225769043 3.171644449234009 0.000000000000000
15.579349517822266 -4.523859977722168 1.986169815063477 0.000000000000000
15.582685470581055 -16.954353332519531 -0.136650100350380 1.000000000000000
15.587381362915039 -16.816349029541016 -1.105387926101685 1.000000000000000
15.588006019592285 -1.560286402702332 2.084711790084839 0.000000000000000
15.591078758239746 -8.462447166442871 1.464697957038879 0.000000000000000
15.593484878540039 -10.013914108276367 1.680022358894348 0.000000000000000
15.594750404357910 -11.108849525451660 2.837608575820923 0.000000000000000
15.597974777221680 -18.103618621826172 -0.968133389949799 1.000000000000000
15.598526000976562 -5.601058006286621 1.240361332893372 0.000000000000000
15.602327346801758 -5.299920558929443 1.233196735382080 0.000000000000000
15.603993415832520 -10.554373741149902 2.791869163513184 0.000000000000000
15.604305267333984 -19.634178161621094 1.007308006286621 1.000000000000000
15.610996246337891 -5.550230979919434 2.028460025787354 0.000000000000000
15.615913391113281 -5.976881980895996 1.456985592842102 0.000000000000000
15.622428894042969 -10.688491821289062 2.016235589981079 0.000000000000000
15.634797096252441 -2.736582994461060 1.279857993125916 0.000000000000000
15.640947341918945 -16.921464920043945 -0.225224882364273 1.000000000000000
15.641533851623535 -4.372492313385010 0.933617115020752 0.000000000000000
15.642142295837402 -2.722677230834961 -0.582195222377777 0.000000000000000
15.642380714416504 -2.166664123535156 1.334395170211792 0.000000000000000
15.643841743469238 -4.471323966979980 1.632596015930176 0.000000000000000
15.652746200561523 -2.769016027450562 3.306327581405640 0.000000000000000
15.653299331665039 -15.788293838500977 1.878661274909973 0.000000000000000
15.653505325317383 -13.970797538757324 2.234848260879517 0.000000000000000
15.659356117248535 -3.050678491592407 2.364380598068237 0.000000000000000
15.664538383483887 -7.894890785217285 2.998437166213989 0.000000000000000
15.680503845214844 -18.168600082397461 -1.249360442161560 1.000000000000000
15.683418273925781 -16.660890579223633 0.699087679386139 0.000000000000000
15.686930656433105 -4.158141613006592 0.870391726493835 0.000000000000000
15.687477111816406 -2.954539537429810 2.124284744262695 0.000000000000000
15.687844276428223 -4.918677806854248 0.945095002651215 0.000000000000000
15.689597129821777 -1.738245725631714 0.573313891887665 0.000000000000000
15.690975189208984 -5.219084262847900 1.499091267585754 0.000000000000000
15.691981315612793 -2.710757732391357 -0.492098301649094 0.000000000000000
15.695452690124512 -8.189344406127930 1.256577730178833 0.000000000000000
15.697660446166992 -4.324445724487305 1.993461370468140 0.000000000000000
15.700142860412598 -3.236486196517944 1.453226566314697 0.000000000000000
15.700819969177246 -4.045309066772461 1.057010531425476 0.000000000000000
15.705451011657715 -17.721843719482422 0.132253378629684 1.000000000000000
15.709867477416992 -1.429433345794678 1.680266976356506 0.000000000000000
15.720025062561035 -16.552717208862305 0.434331804513931 1.000000000000000
15.721066474914551 -18.128421783447266 0.456550627946854 1.000000000000000
15.724774360656738 -7.657938003540039 1.207707881927490 0.000000000000000
15.727578163146973 -4.026746749877930 0.745739936828613 0.000000000000000
15.732099533081055 -16.916723251342773 -1.336063623428345 1.000000000000000
15.745917320251465 -2.428873777389526 1.007949233055115 0.000000000000000
15.746047973632812 -4.699487686157227 1.198068618774414 0.000000000000000
15.746292114257812 -3.985008955001831 1.988600373268127 0.000000000000000
15.751982688903809 -3.391025304794312 1.716278791427612 0.000000000000000
15.755295753479004 -17.285726547241211 0.849445343017578 1.000000000000000
15.757853507995605 -18.170843124389648 -1.391030430793762 1.000000000000000
15.768020629882812 -8.968041419982910 1.427641868591309 0.000000000000000
15.770788192749023 -1.190240621566772 1.336416006088257 0.000000000000000
15.774622917175293 -4.418008327484131 1.384241342544556 0.000000000000000
15.778166770935059 -18.066473007202148 -1.017910122871399 1.000000000000000
15.779043197631836 -9.143847465515137 1.364845156669617 0.000000000000000
15.783356666564941 -8.431777000427246 2.190814495086670 0.000000000000000
15.789477348327637 -1.674030542373657 1.310986995697021 0.000000000000000
15.799242019653320 -17.044912338256836 -1.478491306304932 1.000000000000000
15.802577972412109 -1.806623101234436 0.577669262886047 0.000000000000000
15.809907913208008 -5.710002899169922 1.355408430099487 0.000000000000000
15.827223777770996 -4.285630226135254 1.005767345428467 0.000000000000000
15.827573776245117 -8.151385307312012 1.896337628364563 0.000000000000000
15.832463264465332 -5.046086311340332 1.887410163879395 0.000000000000000
15.842539787292480 -11.136802673339844 2.577001333236694 0.000000000000000
15.848892211914062 -16.287532806396484 0.301466763019562 1.000000000000000
15.852462768554688 -8.490043640136719 1.484775781631470 0.000000000000000
15.853033065795898 -2.093284130096436 0.826839983463287 0.000000000000000
15.854906082153320 -2.151839494705200 -0.709778666496277 0.000000000000000
15.858186721801758 -19.895099639892578 3.114874601364136 0.000000000000000
15.864869117736816 -5.493393421173096 1.788302302360535 0.000000000000000
15.867896080017090 -3.449317932128906 1.414970517158508 0.000000000000000
15.876401901245117 -8.265436172485352 1.477863788604736 0.000000000000000
15.878176689147949 -4.926051139831543 1.404785990715027 0.000000000000000
15.882595062255859 -6.038942337036133 1.107753157615662 0.000000000000000
15.888036727905273 -2.144758939743042 0.798127472400665 0.000000000000000
15.895518302917480 -8.724909782409668 2.219980001449585 0.000000000000000
15.901789665222168 -11.417338371276855 3.346199274063110 0.000000000000000
15.905107498168945 -4.097351551055908 0.880888640880585 0.000000000000000
15.909058570861816 -3.577092409133911 1.996377944946289 0.000000000000000
15.909924507141113 -4.507453441619873 1.205631136894226 0.000000000000000
15.912586212158203 -7.666420459747314 2.617707252502441 0.000000000000000
15.913838386535645 -16.482717514038086 0.171951025724411 0.000000000000000
15.920988082885742 -17.749839782714844 0.041615612804890 1.000000000000000
15.926988601684570 -7.709011077880859 1.426779627799988 0.000000000000000
15.935406684875488 -4.126814842224121 1.295516729354858 0.000000000000000
15.936919212341309 -7.735458374023438 1.777564764022827 0.000000000000000
15.937220573425293 -2.210905551910400 1.048943638801575 0.000000000000000
15.937660217285156 -4.305980682373047 0.790101170539856 0.000000000000000
15.940165519714355 -2.264647960662842 0.615694463253021 0.000000000000000
15.940838813781738 -7.930099964141846 1.126397728919983 0.000000000000000
15.941215515136719 -8.302713394165039 2.200536489486694 0.000000000000000
15.941272735595703 -18.849264144897461 0.280070513486862 1.000000000000000
15.941424369812012 -4.897522449493408 1.894181489944458 0.000000000000000
15.941425323486328 -14.323019981384277 2.282722949981689 0.000000000000000
15.947179794311523 -3.118885755538940 1.122013688087463 0.000000000000000
15.954636573791504 -17.676563262939453 -0.004155978094786 0.000000000000000
15.956229209899902 -8.947628974914551 1.510449171066284 0.000000000000000
15.960577011108398 -9.412006378173828 0.922430872917175 0.000000000000000
15.973243713378906 -17.257991790771484 -0.139545932412148 0.000000000000000
15.980343818664551 -3.236136674880981 1.188761115074158 0.000000000000000
15.980916976928711 -17.656673431396484 -0.232770174741745 1.000000000000000
15.990914344787598 -17.033357620239258 0.983298003673553 1.000000000000000
16.001384735107422 -4.593763828277588 1.509203195571899 0.000000000000000
16.004663467407227 -17.718307495117188 0.408429026603699 1.000000000000000
16.016157150268555 -4.769145488739014 1.379778385162354 0.000000000000000
16.018684387207031 -9.508172988891602 1.770708799362183 0.000000000000000
16.021068572998047 -2.359785795211792 1.274489760398865 0.000000000000000
16.022813796997070 -18.894788742065430 0.709305524826050 1.000000000000000
16.024160385131836 -16.831729888916016 -0.450281441211700 0.000000000000000
16.027183532714844 -9.892409324645996 2.791282653808594 0.000000000000000
16.044687271118164 -5.888038635253906 1.624600768089294 0.000000000000000
16.049945831298828 -4.673878192901611 2.224536657333374 0.000000000000000
16.056190490722656 -2.889253854751587 1.636988878250122 0.000000000000000
16.057353973388672 -17.665992736816406 -0.370861291885376 1.000000000000000
16.063617706298828 -3.098599195480347 0.814436137676239 0.000000000000000
16.069957733154297 -17.428266525268555 0.678739905357361 1.000000000000000
16.073268890380859 -22.582208633422852 2.512810707092285 1.000000000000000
16.078775405883789 -5.293896198272705 1.475041627883911 0.000000000000000
16.083335876464844 -5.118004798889160 1.132872581481934 0.000000000000000
16.092063903808594 -8.597415924072266 2.703908443450928 0.000000000000000
16.110803604125977 -19.067262649536133 -0.531603872776031 1.000000000000000
16.115863800048828 -17.077238082885742 -1.041623234748840 1.000000000000000
16.116977691650391 -4.566113948822021 1.518592953681946 0.000000000000000
16.133226394653320 -2.577193737030029 1.380536556243896 0.000000000000000
16.144422531127930 -9.506755828857422 1.780928850173950 0.000000000000000
16.150436401367188 -4.220722675323486 2.221370935440063 0.000000000000000
16.152723312377930 -4.434342384338379 0.769417166709900 0.000000000000000
16.153839111328125 -17.823953628540039 0.226719111204147 1.000000000000000
16.155841827392578 -1.715724587440491 1.989086389541626 0.000000000000000
16.156620025634766 -2.018713712692261 0.841918528079987 0.000000000000000
16.157955169677734 -5.429590702056885 2.526228189468384 0.000000000000000
16.170381546020508 -8.461217880249023 1.401079893112183 0.000000000000000
16.170492172241211 -10.029645919799805 2.026827335357666 0.000000000000000
16.180442810058594 -2.952446937561035 1.262686491012573 0.000000000000000
16.200349807739258 -16.594160079956055 2.634068250656128 0.000000000000000
16.206180572509766 -18.862056732177734 -0.004340284969658 0.000000000000000
16.209463119506836 -2.750937938690186 2.012905120849609 0.000000000000000
16.215581893920898 -11.973516464233398 1.916059851646423 0.000000000000000
16.219451904296875 -19.151054382324219 -1.258159160614014 1.000000000000000
16.229551315307617 -19.190130233764648 -0.873266100883484 1.000000000000000
16.243913650512695 -2.392609357833862 1.038761019706726 0.000000000000000
16.248239517211914 -2.940503358840942 1.203886032104492 0.000000000000000
16.251686096191406 -7.500386714935303 1.270454764366150 0.000000000000000
16.251976013183594 -17.353878021240234 0.452365577220917 1.000000000000000
16.254320144653320 -1.854244589805603 0.814436137676239 0.000000000000000
16.255729675292969 -18.252723693847656 0.699803888797760 1.000000000000000
16.257785797119141 -4.852218151092529 1.538094401359558 0.000000000000000
16.271644592285156 -8.391590118408203 1.837069869041443 0.000000000000000
16.274568557739258 -5.124481678009033 1.937969923019409 0.000000000000000
16.278415679931641 -4.049914360046387 1.287793278694153 0.000000000000000
16.292377471923828 -19.054363250732422 -1.449923515319824 1.000000000000000
16.292402267456055 -17.174011230468750 0.404939919710159 1.000000000000000
16.299318313598633 -8.225524902343750 1.190242767333984 0.000000000000000
16.302566528320312 -16.780696868896484 0.085750631988049 1.000000000000000
16.303394317626953 -18.239479064941406 0.089665047824383 1.000000000000000
16.303413391113281 -9.649109840393066 2.017930269241333 0.000000000000000
16.309574127197266 -16.760965347290039 2.223038196563721 0.000000000000000
16.311979293823242 -19.100223541259766 0.719150602817535 1.000000000000000
16.313652038574219 -8.688371658325195 1.169332265853882 0.000000000000000
16.319946289062500 -18.041378021240234 0.462866216897964 1.000000000000000
16.320402145385742 -19.211704254150391 -0.633680582046509 1.000000000000000
16.329797744750977 -14.912198066711426 1.655009150505066 0.000000000000000
16.330579757690430 -4.290035724639893 0.808075428009033 0.000000000000000
16.332937240600586 -19.253688812255859 -0.440708160400391 1.000000000000000
16.342456817626953 -18.451011657714844 0.090339437127113 1.000000000000000
16.353656768798828 -7.547447681427002 2.669310569763184 0.000000000000000
16.353891372680664 -16.730392456054688 0.130667239427567 1.000000000000000
16.356781005859375 -3.257720947265625 1.183794260025024 0.000000000000000
16.360767364501953 -3.673858404159546 2.231396198272705 0.000000000000000
16.367443084716797 -7.814584732055664 1.357382178306580 0.000000000000000
16.371606826782227 -7.761208534240723 2.685143470764160 0.000000000000000
16.372974395751953 -17.873598098754883 0.787157416343689 1.000000000000000
16.373149871826172 -5.605462074279785 1.843379139900208 0.000000000000000
16.373550415039062 -3.616739273071289 1.416910886764526 0.000000000000000
16.378604888916016 -19.101148605346680 1.058988094329834 1.000000000000000
16.381595611572266 -3.489188194274902 2.482247829437256 0.000000000000000
16.392311096191406 -5.002874374389648 1.629142999649048 0.000000000000000
16.392871856689453 -13.750865936279297 2.146975517272949 0.000000000000000
16.398433685302734 -10.359450340270996 1.843762755393982 0.000000000000000
16.400941848754883 -17.187210083007812 0.725839436054230 1.000000000000000
16.409486770629883 -5.319735527038574 1.639741420745850 0.000000000000000
16.438806533813477 -18.415538787841797 -0.573121011257172 1.000000000000000
16.447004318237305 -9.750380516052246 1.918539881706238 0.000000000000000
16.447557449340820 -2.804341316223145 2.220315694808960 0.000000000000000
16.448696136474609 -3.945338726043701 1.921267032623291 0.000000000000000
16.456840515136719 -18.465559005737305 -0.811890423297882 0.000000000000000
16.459396362304688 -18.407541275024414 -0.857987105846405 1.000000000000000
16.463157653808594 -2.224735975265503 1.403775691986084 0.000000000000000
16.468553543090820 -4.828536987304688 1.722053289413452 0.000000000000000
16.472009658813477 -7.813030242919922 1.540515899658203 0.000000000000000
16.477056503295898 -4.112467765808105 2.516845703125000 0.000000000000000
16.491329193115234 -18.178472518920898 -1.324973583221436 1.000000000000000
16.497455596923828 -2.464972496032715 1.087456226348877 0.000000000000000
16.503576278686523 -18.338088989257812 0.232524678111076 1.000000000000000
16.506286621093750 -19.455970764160156 0.828573167324066 1.000000000000000
16.509857177734375 -10.177201271057129 1.946095824241638 0.000000000000000
16.519321441650391 -0.950763344764709 0.664582550525665 0.000000000000000
16.521484375000000 -17.217615127563477 0.683204591274261 0.000000000000000
16.522933959960938 -18.394433975219727 -1.049285292625427 1.000000000000000
16.525371551513672 -18.096323013305664 0.278028517961502 1.000000000000000
16.531448364257812 -5.142010688781738 1.966409802436829 0.000000000000000
16.534210205078125 -3.534366846084595 1.428698778152466 0.000000000000000
16.547815322875977 -19.396242141723633 2.558319330215454 0.000000000000000
16.549100875854492 -2.134081840515137 0.573945343494415 0.000000000000000
16.549982070922852 -16.545360565185547 0.310433328151703 1.000000000000000
16.552795410156250 -7.573568344116211 1.538158297538757 0.000000000000000
16.555147171020508 -10.388246536254883 3.340807676315308 0.000000000000000
16.557607650756836 -2.249859571456909 1.347371220588684 0.000000000000000
16.561027526855469 -18.201604843139648 -0.429538637399673 1.000000000000000
16.561931610107422 -18.557380676269531 -1.390625357627869 1.000000000000000
16.569189071655273 -17.676515579223633 0.879933059215546 1.000000000000000
16.572092056274414 -4.808992385864258 1.291408658027649 0.000000000000000
16.574285507202148 -18.492460250854492 -0.385772764682770 1.000000000000000
16.576213836669922 -18.408458709716797 -0.099440924823284 1.000000000000000
16.579854965209961 -17.687894821166992 0.135403349995613 1.000000000000000
16.580663681030273 -2.130502939224243 0.607140719890594 0.000000000000000
16.583335876464844 -3.063361883163452 1.424993991851807 0.000000000000000
16.603429794311523 -17.062953948974609 -0.049863319844007 1.000000000000000
16.605319976806641 -4.401579380035400 1.451601147651672 0.000000000000000
16.613782882690430 -7.828835010528564 1.409959077835083 0.000000000000000
16.619626998901367 -18.502077102661133 -1.438375830650330 1.000000000000000
16.621438980102539 -4.575810432434082 1.290214538574219 0.000000000000000
16.629146575927734 -18.607835769653320 -0.148091018199921 1.000000000000000
16.664491653442383 -10.609092712402344 1.877829551696777 0.000000000000000
16.666353225708008 -18.003065109252930 -0.852431058883667 0.000000000000000
16.667201995849609 -8.805844306945801 0.902153313159943 0.000000000000000
16.668836593627930 -17.739337921142578 0.696941912174225 1.000000000000000
16.671001434326172 -4.680042266845703 1.062092304229736 0.000000000000000
16.680370330810547 -0.685116410255432 1.120550036430359 0.000000000000000
16.680841445922852 -18.763006210327148 0.333035379648209 1.000000000000000
16.683835983276367 -5.155576705932617 3.632154464721680 0.000000000000000
16.689418792724609 -8.363996505737305 2.120345592498779 0.000000000000000
16.691110610961914 -4.720591068267822 1.648825883865356 0.000000000000000
16.698682785034180 -17.256393432617188 -0.373035877943039 1.000000000000000
16.703218460083008 -18.526081085205078 -0.435402661561966 1.000000000000000
16.708730697631836 -17.781793594360352 -0.425908535718918 1.000000000000000
16.709951400756836 -9.149188995361328 1.425743818283081 0.000000000000000
16.711072921752930 -18.110885620117188 -0.808872282505035 1.000000000000000
16.713661193847656 -3.147808313369751 1.174366950988770 0.000000000000000
16.713720321655273 -16.709051132202148 2.246506452560425 0.000000000000000
16.729923248291016 -18.904418945312500 -0.440638363361359 1.000000000000000
16.732381820678711 -19.272848129272461 -1.377799987792969 1.000000000000000
16.732395172119141 -17.806978225708008 -0.802048563957214 1.000000000000000
16.735498428344727 -17.979310989379883 -0.240080893039703 1.000000000000000
16.735969543457031 -9.236463546752930 1.665672063827515 0.000000000000000
16.740892410278320 -4.375030994415283 0.928017973899841 0.000000000000000
16.753208160400391 -2.644156455993652 0.811708509922028 0.000000000000000
16.755769729614258 -17.800077438354492 -1.131456613540649 1.000000000000000
16.761198043823242 -18.649204254150391 0.525235950946808 1.000000000000000
16.777294158935547 -7.743669986724854 1.561397314071655 0.000000000000000
16.777519226074219 -2.078451395034790 2.069777727127075 0.000000000000000
16.782358169555664 -18.745008468627930 -0.052694939076900 1.000000000000000
16.806562423706055 -17.639997482299805 -1.315270662307739 1.000000000000000
16.806964874267578 -4.334686279296875 1.165018320083618 0.000000000000000
16.811748504638672 -10.346297264099121 2.102663993835449 0.000000000000000
16.813297271728516 -10.169664382934570 2.231848001480103 0.000000000000000
16.825717926025391 -10.113509178161621 1.545016646385193 0.000000000000000
16.825963973999023 -4.841298580169678 1.175197958946228 0.000000000000000
16.841972351074219 -8.029960632324219 1.872213721275330 0.000000000000000
16.845319747924805 -4.149456024169922 1.572763681411743 0.000000000000000
16.847951889038086 -5.400204658508301 1.681756973266602 0.000000000000000
16.860887527465820 -7.624321937561035 1.758974671363831 0.000000000000000
16.862262725830078 -17.045125961303711 0.410139381885529 1.000000000000000
16.865575790405273 -3.973179340362549 2.305793762207031 0.000000000000000
16.867033004760742 -4.009274005889893 1.330964684486389 0.000000000000000
16.871322631835938 -18.677762985229492 -0.729424655437469 1.000000000000000
16.871393203735352 -3.739679336547852 1.962798237800598 0.000000000000000
16.871761322021484 -22.113708496093750 -1.180382370948792 1.000000000000000
16.884468078613281 -18.971366882324219 -1.175472021102905 1.000000000000000
16.885971069335938 -17.720863342285156 0.324705511331558 1.000000000000000
16.894708633422852 -15.006152153015137 1.691130399703979 0.000000000000000
16.902914047241211 -3.244586706161499 0.393589168787003 0.000000000000000
16.926248550415039 -17.904010772705078 0.279525965452194 1.000000000000000
16.926807403564453 -8.867562294006348 1.503904104232788 0.000000000000000
16.942167282104492 -8.185785293579102 1.226673483848572 0.000000000000000
16.945335388183594 -10.715709686279297 3.427073955535889 0.000000000000000
16.948554992675781 -3.312273979187012 1.565540909767151 0.000000000000000
16.957479476928711 -3.699808835983276 1.971375346183777 0.000000000000000
16.961248397827148 -5.306231975555420 1.689327359199524 0.000000000000000
16.962625503540039 -9.210720062255859 1.444550752639771 0.000000000000000
16.979213714599609 -4.755378723144531 2.346421957015991 0.000000000000000
16.989210128784180 -8.600112915039062 1.204690098762512 0.000000000000000
16.989654541015625 -9.968169212341309 1.512223243713379 0.000000000000000
16.994939804077148 -7.957756042480469 1.882996559143066 0.000000000000000
17.004810333251953 -1.298895716667175 1.937067031860352 0.000000000000000
17.005533218383789 -17.501834869384766 0.229998871684074 1.000000000000000
17.014289855957031 -4.849537849426270 1.884474992752075 0.000000000000000
17.014944076538086 -4.799031257629395 1.084377288818359 0.000000000000000
17.034454345703125 -4.184693813323975 1.667373299598694 0.000000000000000
17.035207748413086 -4.538768291473389 1.387470722198486 0.000000000000000
17.057146072387695 -7.810091018676758 1.548959255218506 0.000000000000000
17.068325042724609 -18.373493194580078 2.671226263046265 0.000000000000000
17.084455490112305 -11.637627601623535 1.228116393089294 0.000000000000000
17.086032867431641 -9.200648307800293 1.152915954589844 0.000000000000000
17.091518402099609 -10.511070251464844 1.540391802787781 0.000000000000000
17.091665267944336 -18.542179107666016 1.935976505279541 0.000000000000000
17.104888916015625 -3.157236576080322 1.268166899681091 0.000000000000000
17.116277694702148 -3.497592926025391 1.374917268753052 0.000000000000000
17.119014739990234 -9.657489776611328 1.546899676322937 0.000000000000000
17.120029449462891 -9.547681808471680 1.277936577796936 0.000000000000000
17.133104324340820 -4.099381446838379 2.344311475753784 0.000000000000000
17.133659362792969 -15.120242118835449 1.666068792343140 0.000000000000000
17.135595321655273 -0.818885028362274 1.184562087059021 0.000000000000000
17.139915466308594 -4.820717811584473 1.401279568672180 0.000000000000000
17.155546188354492 -4.405433654785156 1.683649659156799 0.000000000000000
17.156526565551758 -3.838710784912109 2.152413129806519 0.000000000000000
17.163948059082031 -10.239482879638672 1.572948098182678 0.000000000000000
17.168529510498047 -3.607337713241577 0.401179254055023 0.000000000000000
17.169406890869141 -18.670278549194336 -0.881322324275970 1.000000000000000
17.172218322753906 -5.178712844848633 3.730717420578003 0.000000000000000
17.174808502197266 -4.040333747863770 1.599488139152527 0.000000000000000
17.176422119140625 -18.660903930664062 -1.222687363624573 1.000000000000000
17.181800842285156 -22.425775527954102 -1.361944198608398 1.000000000000000
17.182241439819336 -1.118955731391907 1.454969048500061 0.000000000000000
17.183559417724609 -19.430677413940430 1.141588211059570 1.000000000000000
17.183950424194336 -18.304166793823242 0.284835159778595 1.000000000000000
17.188564300537109 -8.897529602050781 1.261803150177002 0.000000000000000
17.191022872924805 -9.408689498901367 1.618079781532288 0.000000000000000
17.201246261596680 -3.986402034759521 1.287363886833191 0.000000000000000
17.210647583007812 -19.353502273559570 1.040216088294983 1.000000000000000
17.215229034423828 -18.209684371948242 0.669324755668640 1.000000000000000
17.236770629882812 -8.649976730346680 1.220095992088318 0.000000000000000
17.239494323730469 -9.031371116638184 2.073007106781006 0.000000000000000
17.252916336059570 -6.468454360961914 3.832538127899170 0.000000000000000
17.253686904907227 -9.457078933715820 1.131037831306458 0.000000000000000
17.254325866699219 -20.401842117309570 -0.107260674238205 1.000000000000000
17.264141082763672 -20.493839263916016 2.854250907897949 0.000000000000000
17.276731491088867 -4.191812038421631 0.885040462017059 0.000000000000000
17.279415130615234 -7.481767654418945 1.263866901397705 0.000000000000000
17.292526245117188 -7.177654743194580 1.112350463867188 0.000000000000000
17.314237594604492 -9.671843528747559 2.252613544464111 0.000000000000000
17.318214416503906 -19.851541519165039 0.045978933572769 1.000000000000000
17.321453094482422 -11.144948959350586 1.660825610160828 0.000000000000000
17.332881927490234 -1.007299304008484 1.467093825340271 0.000000000000000
17.339584350585938 -7.917460441589355 2.333725214004517 0.000000000000000
17.341886520385742 -7.483670711517334 1.559491872787476 0.000000000000000
17.342725753784180 -9.653629302978516 1.485448360443115 0.000000000000000
17.351121902465820 -3.722292184829712 2.015614986419678 0.000000000000000
17.352861404418945 -20.877885818481445 2.189036369323730 0.000000000000000
17.356779098510742 -7.463879585266113 1.486956954002380 0.000000000000000
17.371360778808594 -19.834762573242188 0.299129098653793 1.000000000000000
17.381843566894531 -4.426700115203857 2.037283420562744 0.000000000000000
17.397733688354492 -17.678739547729492 -1.100298762321472 1.000000000000000
17.400209426879883 -7.482556343078613 2.017506599426270 0.000000000000000
17.418157577514648 -17.944034576416016 0.139670297503471 1.000000000000000
17.426235198974609 -3.674825191497803 2.022837877273560 0.000000000000000
17.442895889282227 -16.545743942260742 1.938594222068787 0.000000000000000
17.444818496704102 -19.963582992553711 -0.666450202465057 1.000000000000000
17.448377609252930 -1.804960966110229 1.482249617576599 0.000000000000000
17.453390121459961 -9.178004264831543 1.133563041687012 0.000000000000000
17.466953277587891 -9.240860939025879 1.982837319374084 0.000000000000000
17.475025177001953 -19.718610763549805 -0.662328839302063 1.000000000000000
17.475118637084961 -19.953233718872070 -0.106473885476589 1.000000000000000
17.483539581298828 -10.826739311218262 1.340649485588074 0.000000000000000
17.483755111694336 -3.990185976028442 1.238293170928955 0.000000000000000
17.501539230346680 -4.719328403472900 1.391588211059570 0.000000000000000
17.504480361938477 -12.353085517883301 2.149770975112915 0.000000000000000
17.521568298339844 -8.330347061157227 1.564378023147583 0.000000000000000
17.524326324462891 -1.678757309913635 2.155329704284668 0.000000000000000
17.531881332397461 -7.493175506591797 1.812345743179321 0.000000000000000
17.533134460449219 -17.599973678588867 0.806761741638184 1.000000000000000
17.546920776367188 -20.293905258178711 -0.468282967805862 1.000000000000000
17.547288894653320 -6.509049415588379 1.779036164283752 0.000000000000000
17.551088333129883 -16.217811584472656 2.545397043228149 0.000000000000000
17.562309265136719 -8.015453338623047 1.835056781768799 0.000000000000000
