# This PCD file was generated using the MATLAB® pcwrite function
# from Computer Vision Toolbox®.
# .PCD v.7 - Point Cloud Data file format
VERSION .7
FIELDS x y z intensity
SIZE 8 8 8 8
TYPE F F F F
COUNT 1 1 1 1
WIDTH 627
HEIGHT 1
VIEWPOINT 0 0 0 1 0 0 0
POINTS 627
DATA ascii
-16.311080932617188 -16.435676574707031 2.201083898544312 0.000000000000000
-16.309171676635742 -14.560584068298340 0.457968890666962 0.000000000000000
-16.304542541503906 -12.654391288757324 0.194524541497231 0.000000000000000
-16.295671463012695 -13.696006774902344 0.854967713356018 0.000000000000000
-16.295022964477539 -17.103097915649414 0.222647652029991 0.000000000000000
-16.291170120239258 -17.587938308715820 2.173339128494263 0.000000000000000
-16.289949417114258 -16.368602752685547 1.194094896316528 0.000000000000000
-16.288475036621094 -22.245601654052734 1.638042092323303 0.000000000000000
-16.280513763427734 -14.656983375549316 1.217077136039734 0.000000000000000
-16.280183792114258 -19.666780471801758 0.681927323341370 0.000000000000000
-16.275100708007812 -22.079849243164062 1.101698040962219 0.000000000000000
-16.273857116699219 -23.066242218017578 1.133803486824036 0.000000000000000
-16.272502899169922 -15.285173416137695 1.670830845832825 0.000000000000000
-16.253807067871094 -21.527286529541016 1.083397984504700 0.000000000000000
-16.244836807250977 -20.475318908691406 2.369438171386719 0.000000000000000
-16.236892700195312 -21.042982101440430 1.476690649986267 0.000000000000000
-16.235496520996094 -18.026281356811523 -0.097385622560978 0.000000000000000
-16.233638763427734 -14.493149757385254 1.796805739402771 0.000000000000000
-16.227317810058594 -13.700532913208008 1.139028549194336 0.000000000000000
-16.214355468750000 -14.393754959106445 1.538932561874390 0.000000000000000
-16.208868026733398 -12.770703315734863 -0.162073120474815 0.000000000000000
-16.202865600585938 -22.745796203613281 0.263211309909821 0.000000000000000
-16.187902450561523 -14.439125061035156 0.079505160450935 0.000000000000000
-16.187501907348633 -14.564045906066895 1.125931739807129 0.000000000000000
-16.184375762939453 -16.308004379272461 1.719490051269531 0.000000000000000
-16.178924560546875 -16.189090728759766 1.359776616096497 0.000000000000000
-16.174598693847656 -16.518112182617188 0.262282490730286 0.000000000000000
-16.170904159545898 -14.867819786071777 0.207040458917618 0.000000000000000
-16.168849945068359 -17.968673706054688 1.809046864509583 0.000000000000000
-16.155302047729492 -14.581564903259277 2.183717012405396 0.000000000000000
-16.135746002197266 -25.067552566528320 2.346240997314453 0.000000000000000
-16.135108947753906 -14.739581108093262 1.593352794647217 0.000000000000000
-16.117055892944336 -19.213014602661133 1.876811385154724 0.000000000000000
-16.110748291015625 -14.494990348815918 0.121038660407066 0.000000000000000
-16.101564407348633 -14.686270713806152 2.668156385421753 0.000000000000000
-16.101078033447266 -16.328617095947266 0.612506389617920 0.000000000000000
-16.098037719726562 -14.664536476135254 -0.589242041110992 0.000000000000000
-16.094364166259766 -13.969918251037598 0.119028046727180 0.000000000000000
-16.080535888671875 -21.453111648559570 0.252693414688110 0.000000000000000
-16.078243255615234 -19.965879440307617 0.241610035300255 0.000000000000000
-16.076757431030273 -15.021226882934570 0.883702099323273 0.000000000000000
-16.050025939941406 -16.728624343872070 0.218500822782516 0.000000000000000
-16.048307418823242 -14.517051696777344 -0.585563361644745 0.000000000000000
-16.024986267089844 -14.719227790832520 1.460492134094238 0.000000000000000
-16.020483016967773 -14.312896728515625 1.773765683174133 0.000000000000000
-16.017036437988281 -12.407080650329590 0.385480910539627 0.000000000000000
-16.014430999755859 -21.069210052490234 1.113821387290955 0.000000000000000
-16.008949279785156 -14.241420745849609 0.860586166381836 0.000000000000000
-16.007383346557617 -14.829223632812500 0.918372750282288 0.000000000000000
-15.989102363586426 -14.526535034179688 0.867649376392365 0.000000000000000
-15.989060401916504 -14.504105567932129 1.957016468048096 0.000000000000000
-15.988579750061035 -17.752130508422852 1.005500435829163 0.000000000000000
-15.987114906311035 -21.714530944824219 0.772039473056793 0.000000000000000
-15.975631713867188 -15.111631393432617 1.645755052566528 0.000000000000000
-15.969583511352539 -18.637302398681641 1.836809396743774 0.000000000000000
-15.968863487243652 -14.384488105773926 3.673742532730103 0.000000000000000
-15.967493057250977 -24.616930007934570 3.125398397445679 0.000000000000000
-15.960032463073730 -15.606315612792969 1.154229760169983 0.000000000000000
-15.958669662475586 -13.957978248596191 1.463963389396667 0.000000000000000
-15.956893920898438 -14.181143760681152 2.029236793518066 0.000000000000000
-15.955293655395508 -13.381438255310059 1.156944513320923 0.000000000000000
-15.943180084228516 -13.649523735046387 1.085240364074707 0.000000000000000
-15.936593055725098 -16.943470001220703 1.606143951416016 0.000000000000000
-15.930665969848633 -14.716878890991211 0.412645667791367 0.000000000000000
-15.924502372741699 -16.006988525390625 0.472963631153107 0.000000000000000
-15.915322303771973 -14.702703475952148 0.745276331901550 0.000000000000000
-15.913301467895508 -13.910450935363770 1.745129823684692 0.000000000000000
-15.905165672302246 -24.252021789550781 1.220628499984741 0.000000000000000
-15.903028488159180 -13.927931785583496 0.077481977641582 0.000000000000000
-15.901101112365723 -15.056912422180176 1.638888955116272 0.000000000000000
-15.892660140991211 -15.063663482666016 0.542806088924408 0.000000000000000
-15.870822906494141 -17.030096054077148 1.742177844047546 0.000000000000000
-15.870434761047363 -14.599751472473145 1.239619374275208 0.000000000000000
-15.864197731018066 -14.339935302734375 0.694459080696106 0.000000000000000
-15.861834526062012 -18.908767700195312 2.346056699752808 0.000000000000000
-15.837998390197754 -18.043256759643555 3.194869756698608 0.000000000000000
-15.836481094360352 -13.759647369384766 0.842607140541077 0.000000000000000
-15.825049400329590 -15.404245376586914 2.099262714385986 0.000000000000000
-15.822725296020508 -12.168427467346191 -0.540120542049408 0.000000000000000
-15.807710647583008 -18.826889038085938 0.656615376472473 0.000000000000000
-15.807351112365723 -13.946843147277832 0.563057303428650 0.000000000000000
-15.782660484313965 -15.453361511230469 1.567819356918335 0.000000000000000
-15.776056289672852 -13.901619911193848 1.492487072944641 0.000000000000000
-15.760880470275879 -13.667919158935547 2.369532585144043 0.000000000000000
-15.760816574096680 -14.902178764343262 0.871180951595306 0.000000000000000
-15.759096145629883 -12.934534072875977 0.427057832479477 0.000000000000000
-15.752555847167969 -16.304279327392578 1.609167098999023 0.000000000000000
-15.751556396484375 -12.109330177307129 0.683399200439453 0.000000000000000
-15.751136779785156 -14.348526000976562 1.389050245285034 0.000000000000000
-15.748455047607422 -19.567531585693359 1.057137846946716 0.000000000000000
-15.742745399475098 -16.657972335815430 1.715310692787170 0.000000000000000
-15.741735458374023 -14.083637237548828 2.586006879806519 0.000000000000000
-15.741042137145996 -14.271104812622070 1.180464982986450 0.000000000000000
-15.728957176208496 -17.332033157348633 1.661276698112488 0.000000000000000
-15.724746704101562 -32.406867980957031 2.001243114471436 0.000000000000000
-15.723252296447754 -13.762733459472656 1.160938501358032 0.000000000000000
-15.713838577270508 -19.284933090209961 0.616653859615326 0.000000000000000
-15.713206291198730 -14.414651870727539 0.733450949192047 0.000000000000000
-15.711215019226074 -22.219333648681641 2.371247529983521 0.000000000000000
-15.710153579711914 -13.442421913146973 0.393394440412521 0.000000000000000
-15.703432083129883 -14.011912345886230 1.047728776931763 0.000000000000000
-15.699895858764648 -15.595030784606934 1.314703822135925 0.000000000000000
-15.695657730102539 -18.578561782836914 1.444940567016602 0.000000000000000
-15.693492889404297 -14.321093559265137 1.057673096656799 0.000000000000000
-15.691112518310547 -22.040420532226562 1.555263161659241 0.000000000000000
-15.688751220703125 -15.660301208496094 0.464335352182388 0.000000000000000
-15.686698913574219 -12.239047050476074 0.378556579351425 0.000000000000000
-15.684342384338379 -13.515452384948730 0.393927067518234 0.000000000000000
-15.683012962341309 -14.932644844055176 0.204099968075752 0.000000000000000
-15.673583984375000 -23.209077835083008 2.662119388580322 0.000000000000000
-15.672122001647949 -13.814888000488281 1.160716652870178 0.000000000000000
-15.669365882873535 -21.211530685424805 -0.156493678689003 0.000000000000000
-15.665147781372070 -18.254903793334961 1.336454987525940 0.000000000000000
-15.664223670959473 -13.403120994567871 0.709112584590912 0.000000000000000
-15.662201881408691 -20.474945068359375 3.820421695709229 0.000000000000000
-15.642817497253418 -21.335674285888672 -0.106200911104679 0.000000000000000
-15.623942375183105 -15.828153610229492 1.107195615768433 0.000000000000000
-15.620522499084473 -26.602201461791992 -0.953309178352356 1.000000000000000
-15.615343093872070 -16.171293258666992 0.600437819957733 0.000000000000000
-15.615263938903809 -20.268056869506836 0.339402139186859 0.000000000000000
-15.605369567871094 -20.864688873291016 1.046476721763611 0.000000000000000
-15.601340293884277 -23.276880264282227 2.663633346557617 0.000000000000000
-15.596928596496582 -19.122364044189453 1.466053724288940 0.000000000000000
-15.586168289184570 -14.165431976318359 0.522089004516602 0.000000000000000
-15.576086997985840 -14.811154365539551 0.780630290508270 0.000000000000000
-15.574659347534180 -21.242712020874023 1.514172077178955 0.000000000000000
-15.571757316589355 -13.246047019958496 0.821096539497375 0.000000000000000
-15.565743446350098 -20.240283966064453 0.731056332588196 0.000000000000000
-15.565484046936035 -14.908002853393555 1.155952215194702 0.000000000000000
-15.563233375549316 -18.291915893554688 1.797404408454895 0.000000000000000
-15.559079170227051 -17.397001266479492 0.623400151729584 0.000000000000000
-15.554274559020996 -17.019779205322266 2.009084463119507 0.000000000000000
-15.553515434265137 -12.232378005981445 0.148505881428719 0.000000000000000
-15.553424835205078 -15.342041015625000 1.635008096694946 0.000000000000000
-15.541338920593262 -20.595615386962891 1.483181715011597 0.000000000000000
-15.539295196533203 -15.860454559326172 1.576032161712646 0.000000000000000
-15.536405563354492 -18.136886596679688 2.080961704254150 0.000000000000000
-15.532064437866211 -21.340436935424805 0.299446731805801 0.000000000000000
-15.528425216674805 -15.475392341613770 2.490063190460205 0.000000000000000
-15.517769813537598 -13.883261680603027 1.558287858963013 0.000000000000000
-15.515191078186035 -20.211753845214844 1.562894344329834 0.000000000000000
-15.514198303222656 -21.973241806030273 3.986373901367188 0.000000000000000
-15.500186920166016 -13.562705039978027 1.461900830268860 0.000000000000000
-15.489976882934570 -14.784966468811035 0.530811965465546 0.000000000000000
-15.487588882446289 -17.805135726928711 0.267727792263031 0.000000000000000
-15.483874320983887 -13.840293884277344 0.076118528842926 0.000000000000000
-15.483745574951172 -23.790121078491211 1.631706476211548 0.000000000000000
-15.478581428527832 -14.923499107360840 1.153167247772217 0.000000000000000
-15.475162506103516 -13.160156250000000 1.363518953323364 0.000000000000000
-15.473921775817871 -14.614556312561035 0.813945591449738 0.000000000000000
-15.472913742065430 -15.236018180847168 1.457545518875122 0.000000000000000
-15.463592529296875 -15.638383865356445 1.094864606857300 0.000000000000000
-15.457114219665527 -15.887134552001953 1.231500148773193 0.000000000000000
-15.455969810485840 -13.232405662536621 0.738963723182678 0.000000000000000
-15.455628395080566 -13.498018264770508 2.330709934234619 0.000000000000000
-15.455433845520020 -13.422901153564453 1.097897529602051 0.000000000000000
-15.445289611816406 -11.860584259033203 2.074278354644775 0.000000000000000
-15.443593025207520 -13.456176757812500 0.822701811790466 0.000000000000000
-15.441854476928711 -17.145099639892578 1.326392769813538 0.000000000000000
-15.412283897399902 -16.072900772094727 0.937211155891418 0.000000000000000
-15.401202201843262 -13.514103889465332 0.507914185523987 0.000000000000000
-15.400188446044922 -14.374982833862305 2.579201698303223 0.000000000000000
-15.397747039794922 -15.232556343078613 1.036577582359314 0.000000000000000
-15.391063690185547 -12.199682235717773 0.977721095085144 0.000000000000000
-15.388433456420898 -21.212266921997070 0.851033627986908 0.000000000000000
-15.385585784912109 -20.707647323608398 0.342214137315750 0.000000000000000
-15.382491111755371 -21.448057174682617 1.924355983734131 0.000000000000000
-15.381043434143066 -21.288734436035156 -0.105430178344250 0.000000000000000
-15.379444122314453 -13.626694679260254 0.706775009632111 0.000000000000000
-15.372950553894043 -19.261507034301758 0.989810585975647 0.000000000000000
-15.371265411376953 -19.830093383789062 2.517584323883057 0.000000000000000
-15.370289802551270 -12.796047210693359 0.418932199478149 0.000000000000000
-15.362519264221191 -20.800708770751953 0.690685093402863 0.000000000000000
-15.355566024780273 -19.953296661376953 1.932914614677429 0.000000000000000
-15.352654457092285 -13.810984611511230 0.472233802080154 0.000000000000000
-15.349725723266602 -21.245388031005859 0.297359377145767 0.000000000000000
-15.333984375000000 -15.760579109191895 0.545085906982422 0.000000000000000
-15.320775032043457 -16.482500076293945 2.555971384048462 0.000000000000000
-15.318374633789062 -13.235529899597168 1.202733397483826 0.000000000000000
-15.313388824462891 -13.575804710388184 1.058181643486023 0.000000000000000
-15.312260627746582 -13.890162467956543 0.870099365711212 0.000000000000000
-15.302577018737793 -13.790113449096680 0.154599815607071 0.000000000000000
-15.288687705993652 -13.371990203857422 0.152438417077065 0.000000000000000
-15.287957191467285 -12.909269332885742 1.034634351730347 0.000000000000000
-15.285970687866211 -15.222609519958496 1.364810228347778 0.000000000000000
-15.282052040100098 -19.279766082763672 0.326350271701813 0.000000000000000
-15.269926071166992 -19.970792770385742 1.493571877479553 0.000000000000000
-15.263236999511719 -19.376619338989258 1.038131356239319 0.000000000000000
-15.261938095092773 -26.200540542602539 -0.937000632286072 1.000000000000000
-15.260145187377930 -13.932478904724121 -0.122621923685074 0.000000000000000
-15.250005722045898 -19.203512191772461 1.362416386604309 0.000000000000000
-15.247787475585938 -12.711191177368164 2.941988468170166 0.000000000000000
-15.244269371032715 -21.314973831176758 0.750288665294647 0.000000000000000
-15.241351127624512 -9.406636238098145 1.029572725296021 0.000000000000000
-15.238763809204102 -14.093475341796875 0.793768942356110 0.000000000000000
-15.226116180419922 -16.266433715820312 2.530691623687744 0.000000000000000
-15.225879669189453 -13.271156311035156 0.500678122043610 0.000000000000000
-15.224556922912598 -14.198127746582031 1.196691870689392 0.000000000000000
-15.221170425415039 -15.873596191406250 0.587408065795898 0.000000000000000
-15.215636253356934 -22.873657226562500 2.611397981643677 0.000000000000000
-15.212966918945312 -20.003175735473633 0.236860021948814 0.000000000000000
-15.205468177795410 -21.114736557006836 0.045413441956043 0.000000000000000
-15.202183723449707 -13.288834571838379 0.422953128814697 0.000000000000000
-15.197920799255371 -13.201115608215332 0.731124043464661 0.000000000000000
-15.190462112426758 -14.884956359863281 1.755991697311401 0.000000000000000
-15.183462142944336 -21.084178924560547 0.843763172626495 0.000000000000000
-15.178933143615723 -13.551525115966797 2.491219043731689 0.000000000000000
-15.176070213317871 -13.652132987976074 0.780623495578766 0.000000000000000
-15.171977996826172 -12.436704635620117 2.228236436843872 0.000000000000000
-15.165433883666992 -11.743181228637695 0.364936113357544 0.000000000000000
-15.155405998229980 -15.291443824768066 0.533686637878418 0.000000000000000
-15.149832725524902 -13.517944335937500 0.698387265205383 0.000000000000000
-15.149522781372070 -13.162777900695801 1.115006923675537 0.000000000000000
-15.140734672546387 -21.110973358154297 -0.503360569477081 0.000000000000000
-15.135707855224609 -19.645608901977539 1.091464638710022 0.000000000000000
-15.128182411193848 -13.819743156433105 1.177867889404297 0.000000000000000
-15.127439498901367 -18.387643814086914 -0.507076203823090 0.000000000000000
-15.105566978454590 -25.287626266479492 2.432056903839111 0.000000000000000
-15.102767944335938 -13.504384040832520 0.074256613850594 0.000000000000000
-15.100706100463867 -14.189438819885254 2.536911725997925 0.000000000000000
-15.095080375671387 -12.285821914672852 2.210630893707275 0.000000000000000
-15.094296455383301 -12.477327346801758 0.410220146179199 0.000000000000000
-15.081882476806641 -13.783242225646973 -0.160470917820930 0.000000000000000
-15.079354286193848 -14.458563804626465 0.196899533271790 0.000000000000000
-15.078885078430176 -14.368466377258301 2.550036191940308 0.000000000000000
-15.077961921691895 -20.410949707031250 0.629044413566589 0.000000000000000
-15.076109886169434 -18.483823776245117 2.267324686050415 0.000000000000000
-15.065267562866211 -11.592603683471680 1.275921463966370 0.000000000000000
-15.047373771667480 -18.317670822143555 1.774119734764099 0.000000000000000
-15.043808937072754 -15.909502029418945 1.258672833442688 0.000000000000000
-15.039117813110352 -15.198502540588379 1.064435124397278 0.000000000000000
-15.039003372192383 -15.495221138000488 0.535272598266602 0.000000000000000
-15.032015800476074 -20.348752975463867 0.238443344831467 0.000000000000000
-15.027032852172852 -18.527736663818359 -0.141563519835472 0.000000000000000
-15.026799201965332 -13.802375793457031 0.113956846296787 0.000000000000000
-15.024487495422363 -13.803145408630371 -0.473685950040817 0.000000000000000
-15.019141197204590 -19.222242355346680 2.318803310394287 0.000000000000000
-15.006012916564941 -16.544685363769531 0.940070569515228 0.000000000000000
-15.004408836364746 -10.381026268005371 3.795068025588989 0.000000000000000
-14.996290206909180 -16.418432235717773 0.935865581035614 0.000000000000000
-14.986512184143066 -12.823236465454102 0.072292074561119 0.000000000000000
-14.985277175903320 -17.243452072143555 2.171559810638428 0.000000000000000
-14.980971336364746 -12.556277275085449 0.709927856922150 0.000000000000000
-14.978275299072266 -14.130618095397949 0.708287537097931 0.000000000000000
-14.973031997680664 -16.030790328979492 1.514663338661194 0.000000000000000
-14.967258453369141 -13.642094612121582 0.424209654331207 0.000000000000000
-14.966425895690918 -13.108575820922852 0.149316415190697 0.000000000000000
-14.966404914855957 -20.314048767089844 -0.004403814673424 0.000000000000000
-14.959787368774414 -13.475528717041016 0.847392320632935 0.000000000000000
-14.959336280822754 -12.799983024597168 1.587525486946106 0.000000000000000
-14.943420410156250 -13.830015182495117 0.778636395931244 0.000000000000000
-14.942135810852051 -23.240859985351562 1.375492095947266 0.000000000000000
-14.934223175048828 -14.551325798034668 0.837470293045044 0.000000000000000
-14.928685188293457 -18.406476974487305 1.316706657409668 0.000000000000000
-14.927982330322266 -16.937238693237305 1.689637780189514 0.000000000000000
-14.927123069763184 -13.615060806274414 0.112839840352535 0.000000000000000
-14.916632652282715 -17.419528961181641 0.921104967594147 0.000000000000000
-14.912957191467285 -13.415441513061523 1.075832486152649 0.000000000000000
-14.905137062072754 -26.159065246582031 -0.178663417696953 1.000000000000000
-14.891748428344727 -14.381801605224609 0.234874412417412 0.000000000000000
-14.890554428100586 -12.980251312255859 1.516509652137756 0.000000000000000
-14.888222694396973 -10.978148460388184 1.563081383705139 0.000000000000000
-14.877800941467285 -16.784399032592773 0.555989623069763 0.000000000000000
-14.874765396118164 -18.471408843994141 -0.869628429412842 0.000000000000000
-14.871363639831543 -11.540400505065918 0.068993411958218 0.000000000000000
-14.871258735656738 -19.565208435058594 1.412706971168518 0.000000000000000
-14.867623329162598 -15.613631248474121 -0.417736560106277 0.000000000000000
-14.864531517028809 -12.494059562683105 1.603268265724182 0.000000000000000
-14.860541343688965 -13.002089500427246 1.668499231338501 0.000000000000000
-14.856500625610352 -15.601951599121094 -0.086482934653759 0.000000000000000
-14.852774620056152 -11.947060585021973 1.389748096466064 0.000000000000000
-14.843207359313965 -17.185108184814453 0.955713212490082 0.000000000000000
-14.841182708740234 -10.909508705139160 1.848251938819885 0.000000000000000
-14.830110549926758 -19.359142303466797 1.730945110321045 0.000000000000000
-14.828733444213867 -14.113311767578125 -0.160785064101219 0.000000000000000
-14.822832107543945 -13.615028381347656 0.730978906154633 0.000000000000000
-14.810800552368164 -20.823890686035156 0.338977694511414 0.000000000000000
-14.805206298828125 -14.597874641418457 -0.123381488025188 0.000000000000000
-14.796623229980469 -14.390094757080078 -0.399914383888245 0.000000000000000
-14.793273925781250 -12.396316528320312 0.367218881845474 0.000000000000000
-14.778095245361328 -25.726905822753906 -0.631843805313110 1.000000000000000
-14.775009155273438 -14.369074821472168 1.184754729270935 0.000000000000000
-14.773449897766113 -12.674908638000488 1.456790089607239 0.000000000000000
-14.760443687438965 -12.462068557739258 2.570669651031494 0.000000000000000
-14.753416061401367 -16.961103439331055 -0.090240269899368 0.000000000000000
-14.749618530273438 -15.812609672546387 -0.086804069578648 0.000000000000000
-14.744876861572266 -11.510850906372070 1.255562543869019 0.000000000000000
-14.738090515136719 -12.122380256652832 1.575619935989380 0.000000000000000
-14.735332489013672 -12.108910560607910 0.949479341506958 0.000000000000000
-14.734758377075195 -19.854118347167969 0.755400776863098 0.000000000000000
-14.734301567077637 -18.571411132812500 0.268952965736389 0.000000000000000
-14.732065200805664 -13.448456764221191 0.993035256862640 0.000000000000000
-14.730417251586914 -19.539403915405273 0.324599415063858 0.000000000000000
-14.728441238403320 -12.804144859313965 1.769223809242249 0.000000000000000
-14.726600646972656 -12.897616386413574 1.427269458770752 0.000000000000000
-14.715251922607422 -15.886576652526855 0.245674267411232 0.000000000000000
-14.706762313842773 -15.337140083312988 1.221484184265137 0.000000000000000
-14.698445320129395 -13.586150169372559 0.111789859831333 0.000000000000000
-14.697845458984375 -13.926297187805176 0.813230693340302 0.000000000000000
-14.691187858581543 -15.536588668823242 0.242588609457016 0.000000000000000
-14.672884941101074 -19.579427719116211 0.653518140316010 0.000000000000000
-14.663242340087891 -15.941691398620605 -0.086948588490486 0.000000000000000
-14.658518791198730 -13.941568374633789 2.692027330398560 0.000000000000000
-14.656172752380371 -15.576704978942871 1.807260155677795 0.000000000000000
-14.651057243347168 -14.234605789184570 -0.160439506173134 0.000000000000000
-14.650921821594238 -18.616670608520508 0.678281962871552 0.000000000000000
-14.647942543029785 -13.634601593017578 0.419183492660522 0.000000000000000
-14.647216796875000 -16.377424240112305 -0.088201031088829 0.000000000000000
-14.646351814270020 -14.444276809692383 0.233376950025558 0.000000000000000
-14.644531250000000 -25.500568389892578 -0.569767534732819 1.000000000000000
-14.643325805664062 -20.741323471069336 2.413432836532593 0.000000000000000
-14.640737533569336 -12.762483596801758 1.948891401290894 0.000000000000000
-14.640134811401367 -20.480073928833008 0.817537605762482 0.000000000000000
-14.635086059570312 -11.157425880432129 1.448355078697205 0.000000000000000
-14.629896163940430 -12.439577102661133 1.622694611549377 0.000000000000000
-14.629250526428223 -20.002250671386719 0.376314818859100 0.000000000000000
-14.623072624206543 -13.829319000244141 0.228340029716492 0.000000000000000
-14.622178077697754 -12.529184341430664 0.070576772093773 0.000000000000000
-14.619181632995605 -16.461349487304688 -0.088377654552460 0.000000000000000
-14.619079589843750 -28.823261260986328 2.293955326080322 0.000000000000000
-14.614399909973145 -19.367221832275391 1.021143078804016 0.000000000000000
-14.600736618041992 -15.644233703613281 -0.455721288919449 0.000000000000000
-14.600229263305664 -18.921871185302734 1.696394085884094 0.000000000000000
-14.599884986877441 -15.037530899047852 0.841804563999176 0.000000000000000
-14.599183082580566 -12.859142303466797 0.444891065359116 0.000000000000000
-14.587487220764160 -17.363756179809570 1.976097583770752 0.000000000000000
-14.576426506042480 -16.655218124389648 1.314941048622131 0.000000000000000
-14.570487022399902 -11.050788879394531 -0.178741216659546 0.000000000000000
-14.567420005798340 -18.761270523071289 1.365417838096619 0.000000000000000
-14.566200256347656 -11.541718482971191 1.211580753326416 0.000000000000000
-14.566169738769531 -18.245424270629883 1.747252583503723 0.000000000000000
-14.566056251525879 -12.829962730407715 -0.450660824775696 0.000000000000000
-14.556198120117188 -11.696794509887695 1.577900528907776 0.000000000000000
-14.555227279663086 -14.831173896789551 1.074499487876892 0.000000000000000
-14.553106307983398 -12.641020774841309 1.293869733810425 0.000000000000000
-14.552128791809082 -14.424681663513184 1.375305771827698 0.000000000000000
-14.550875663757324 -11.225117683410645 1.517361164093018 0.000000000000000
-14.546230316162109 -11.451688766479492 0.921635389328003 0.000000000000000
-14.545656204223633 -16.959917068481445 1.284383416175842 0.000000000000000
-14.545533180236816 -12.105127334594727 0.105691015720367 0.000000000000000
-14.537855148315430 -14.337277412414551 1.173735976219177 0.000000000000000
-14.534997940063477 -13.821192741394043 1.037113070487976 0.000000000000000
-14.528551101684570 -12.546023368835449 0.070356860756874 0.000000000000000
-14.526411056518555 -12.481018066406250 1.921734809875488 0.000000000000000
-14.522477149963379 -18.287374496459961 -0.856290221214294 0.000000000000000
-14.513568878173828 -13.344037055969238 -0.116996414959431 0.000000000000000
-14.509825706481934 -12.339229583740234 -0.186169221997261 0.000000000000000
-14.509543418884277 -13.833679199218750 -0.157455012202263 0.000000000000000
-14.508491516113281 -19.497283935546875 -1.265164494514465 0.000000000000000
-14.504003524780273 -12.334278106689453 0.691489994525909 0.000000000000000
-14.502144813537598 -16.909185409545898 0.937547624111176 0.000000000000000
-14.501296043395996 -13.580523490905762 1.601992607116699 0.000000000000000
-14.499538421630859 -11.157279968261719 2.239909648895264 0.000000000000000
-14.491152763366699 -20.525779724121094 0.719379603862762 0.000000000000000
-14.486266136169434 -12.571426391601562 0.364936113357544 0.000000000000000
-14.472089767456055 -12.680965423583984 2.851682424545288 0.000000000000000
-14.471184730529785 -12.328143119812012 1.129430651664734 0.000000000000000
-14.460358619689941 -12.941774368286133 1.602280735969543 0.000000000000000
-14.456311225891113 -13.281156539916992 2.612353324890137 0.000000000000000
-14.450274467468262 -20.148252487182617 0.281295686960220 0.000000000000000
-14.450129508972168 -25.360509872436523 -1.070289492607117 1.000000000000000
-14.449699401855469 -27.865587234497070 1.985844373703003 0.000000000000000
-14.439635276794434 -19.022144317626953 0.316800087690353 0.000000000000000
-14.436890602111816 -11.328516960144043 0.878251433372498 0.000000000000000
-14.427164077758789 -15.906483650207520 0.243632301688194 0.000000000000000
-14.417290687561035 -17.049688339233398 0.939734220504761 0.000000000000000
-14.416302680969238 -13.538754463195801 0.528240025043488 0.000000000000000
-14.416204452514648 -13.948822975158691 0.805685877799988 0.000000000000000
-14.411613464355469 -13.407105445861816 0.979908823966980 0.000000000000000
-14.409076690673828 -11.927001953125000 1.327661991119385 0.000000000000000
-14.400421142578125 -12.178779602050781 0.069125354290009 0.000000000000000
-14.395609855651855 -10.789688110351562 1.034163951873779 0.000000000000000
-14.394492149353027 -15.750722885131836 0.528928637504578 0.000000000000000
-14.386610031127930 -11.921957015991211 1.542705416679382 0.000000000000000
-14.384671211242676 -30.901531219482422 1.237945795059204 0.000000000000000
-14.377264022827148 -11.894757270812988 0.068392321467400 0.000000000000000
-14.375219345092773 -12.841197013854980 0.144663408398628 0.000000000000000
-14.375215530395508 -20.192054748535156 0.281204938888550 0.000000000000000
-14.372012138366699 -11.487819671630859 2.726778268814087 0.000000000000000
-14.371892929077148 -11.570173263549805 2.734401464462280 0.000000000000000
-14.371159553527832 -14.071310997009277 1.117447733879089 0.000000000000000
-14.366082191467285 -10.877204895019531 0.862380564212799 0.000000000000000
-14.365509986877441 -13.787586212158203 0.149436488747597 0.000000000000000
-14.365291595458984 -12.481393814086914 0.471733778715134 0.000000000000000
-14.362622261047363 -10.007585525512695 3.641114950180054 0.000000000000000
-14.352345466613770 -14.109921455383301 2.286018848419189 0.000000000000000
-14.342834472656250 -13.626077651977539 0.984880924224854 0.000000000000000
-14.339672088623047 -15.810020446777344 0.570106208324432 0.000000000000000
-14.339006423950195 -12.193963050842285 0.973287582397461 0.000000000000000
-14.336089134216309 -14.710239410400391 1.062106251716614 0.000000000000000
-14.325860977172852 -18.577013015747070 0.987334847450256 0.000000000000000
-14.325226783752441 -19.586565017700195 2.434916257858276 0.000000000000000
-14.324130058288574 -11.909872055053711 0.354435443878174 0.000000000000000
-14.318382263183594 -11.608045578002930 3.150751590728760 0.000000000000000
-14.316661834716797 -14.488606452941895 1.327898740768433 0.000000000000000
-14.316455841064453 -13.829106330871582 1.182569146156311 0.000000000000000
-14.301354408264160 -13.522226333618164 0.487891077995300 0.000000000000000
-14.293263435363770 -12.236970901489258 1.553567171096802 0.000000000000000
-14.291136741638184 -9.790473937988281 0.929089069366455 0.000000000000000
-14.290068626403809 -16.541194915771484 0.206022590398788 0.000000000000000
-14.288791656494141 -11.468791007995605 2.081071615219116 0.000000000000000
-14.288567543029785 -11.118943214416504 1.816702365875244 0.000000000000000
-14.283130645751953 -13.693198204040527 -0.231389775872231 0.000000000000000
-14.279400825500488 -12.337824821472168 1.412310361862183 0.000000000000000
-14.263923645019531 -11.790920257568359 1.242168426513672 0.000000000000000
-14.256452560424805 -15.828948020935059 0.241681054234505 0.000000000000000
-14.250157356262207 -12.971652984619141 0.922230958938599 0.000000000000000
-14.248334884643555 -12.105719566345215 0.355729013681412 0.000000000000000
-14.244223594665527 -13.756449699401855 0.833431720733643 0.000000000000000
-14.244020462036133 -11.776978492736816 1.561734080314636 0.000000000000000
-14.235496520996094 -10.931572914123535 1.412577748298645 0.000000000000000
-14.230823516845703 -21.097274780273438 2.553527116775513 0.000000000000000
-14.225070953369141 -17.440420150756836 0.298548668622971 0.000000000000000
-14.223640441894531 -16.268146514892578 0.535669088363647 0.000000000000000
-14.222829818725586 -10.792588233947754 1.163960576057434 0.000000000000000
-14.222476005554199 -19.112920761108398 -0.873586058616638 0.000000000000000
-14.220176696777344 -12.007626533508301 0.675955832004547 0.000000000000000
-14.212426185607910 -12.178083419799805 1.220167994499207 0.000000000000000
-14.203461647033691 -11.521452903747559 1.368726015090942 0.000000000000000
-14.193458557128906 -12.505299568176270 0.941722810268402 0.000000000000000
-14.186812400817871 -12.923501968383789 -0.224420502781868 0.000000000000000
-14.180288314819336 -17.483734130859375 1.597838997840881 0.000000000000000
-14.163968086242676 -25.691890716552734 0.783602356910706 0.000000000000000
-14.158332824707031 -11.782890319824219 0.385843187570572 0.000000000000000
-14.152022361755371 -14.319992065429688 1.041037678718567 0.000000000000000
-14.151080131530762 -19.877225875854492 2.211981296539307 0.000000000000000
-14.150094032287598 -19.729707717895508 0.648498475551605 0.000000000000000
-14.149704933166504 -12.375798225402832 0.718870580196381 0.000000000000000
-14.149178504943848 -16.842027664184570 1.561305761337280 0.000000000000000
-14.132759094238281 -13.128829002380371 0.923186957836151 0.000000000000000
-14.127418518066406 -12.443605422973633 0.719940543174744 0.000000000000000
-14.124734878540039 -14.027450561523438 0.225844278931618 0.000000000000000
-14.119313240051270 -16.228679656982422 0.202742829918861 0.000000000000000
-14.119148254394531 -13.522759437561035 1.651996016502380 0.000000000000000
-14.108274459838867 -10.873465538024902 0.749668061733246 0.000000000000000
-14.102125167846680 -14.583806991577148 1.009940505027771 0.000000000000000
-14.097258567810059 -11.349890708923340 1.494321107864380 0.000000000000000
-14.087614059448242 -23.518199920654297 2.263534307479858 0.000000000000000
-14.083925247192383 -13.146350860595703 1.441864132881165 0.000000000000000
-14.083700180053711 -12.848474502563477 2.536900520324707 0.000000000000000
-14.078248023986816 -12.941980361938477 0.804837703704834 0.000000000000000
-14.078051567077637 -11.466244697570801 0.345456659793854 0.000000000000000
-14.073148727416992 -14.528457641601562 1.006957292556763 0.000000000000000
-14.068070411682129 -21.003536224365234 1.015334367752075 0.000000000000000
-14.065358161926270 -24.940612792968750 -1.325272560119629 1.000000000000000
-14.059276580810547 -12.324450492858887 2.289004802703857 0.000000000000000
-14.041375160217285 -12.285367965698242 1.000639796257019 0.000000000000000
-14.035450935363770 -16.825557708740234 -0.466622471809387 0.000000000000000
-14.027665138244629 -21.214401245117188 1.413007736206055 0.000000000000000
-14.026529312133789 -23.398605346679688 1.673340201377869 0.000000000000000
-14.024024963378906 -13.186947822570801 1.440669894218445 0.000000000000000
-14.023556709289551 -12.258549690246582 -0.468223959207535 0.000000000000000
-14.022976875305176 -11.342618942260742 0.377801269292831 0.000000000000000
-14.021673202514648 -11.199767112731934 0.720767021179199 0.000000000000000
-14.016484260559082 -11.785429954528809 1.370517134666443 0.000000000000000
-14.014202117919922 -13.659667968750000 0.485115557909012 0.000000000000000
-14.003796577453613 -15.658000946044922 0.238323122262955 0.000000000000000
-13.998901367187500 -13.808644294738770 1.869123458862305 0.000000000000000
-13.990381240844727 -14.570696830749512 1.394801974296570 0.000000000000000
-13.988639831542969 -13.051008224487305 -0.150260835886002 0.000000000000000
-13.986592292785645 -12.240889549255371 1.355135321617126 0.000000000000000
-13.986514091491699 -12.410825729370117 -0.434134721755981 0.000000000000000
-13.985707283020020 -12.493250846862793 1.584636449813843 0.000000000000000
-13.985419273376465 -11.889063835144043 0.384502828121185 0.000000000000000
-13.984948158264160 -13.597869873046875 1.083720207214355 0.000000000000000
-13.979243278503418 -35.273365020751953 0.649039566516876 0.000000000000000
-13.972749710083008 -13.403132438659668 1.150306582450867 0.000000000000000
-13.969000816345215 -17.239206314086914 0.933847129344940 0.000000000000000
-13.967107772827148 -13.771512985229492 1.392232656478882 0.000000000000000
-13.963196754455566 -17.615903854370117 2.136736154556274 0.000000000000000
-13.955121040344238 -11.233044624328613 1.029802322387695 0.000000000000000
-13.952608108520508 -14.019977569580078 0.414324849843979 0.000000000000000
-13.952191352844238 -10.813852310180664 1.184841752052307 0.000000000000000
-13.951519012451172 -14.948616981506348 -0.121340170502663 0.000000000000000
-13.951459884643555 -30.526102066040039 1.735475778579712 0.000000000000000
-13.950036048889160 -12.070697784423828 1.851047515869141 0.000000000000000
-13.948144912719727 -19.896354675292969 2.309718847274780 0.000000000000000
-13.947297096252441 -13.095550537109375 -0.113530904054642 0.000000000000000
-13.942595481872559 -17.216447830200195 0.293879687786102 0.000000000000000
-13.935565948486328 -14.323257446289062 0.802635848522186 0.000000000000000
-13.932849884033203 -17.072412490844727 0.588582873344421 0.000000000000000
-13.931275367736816 -11.540524482727051 1.493662714958191 0.000000000000000
-13.917960166931152 -16.113878250122070 0.568717777729034 0.000000000000000
-13.916325569152832 -12.538234710693359 1.780550122261047 0.000000000000000
-13.914548873901367 -11.749552726745605 0.101714476943016 0.000000000000000
-13.902709007263184 -16.092813491821289 1.509479284286499 0.000000000000000
-13.900258064270020 -14.387106895446777 1.111456632614136 0.000000000000000
-13.899497032165527 -16.197355270385742 -0.126657098531723 0.000000000000000
-13.885823249816895 -19.273017883300781 0.680113673210144 0.000000000000000
-13.883918762207031 -11.973284721374512 0.983287692070007 0.000000000000000
-13.881388664245605 -12.427974700927734 1.394398927688599 0.000000000000000
-13.872031211853027 -9.111525535583496 3.452135324478149 0.000000000000000
-13.857254981994629 -12.815794944763184 0.431631207466125 0.000000000000000
-13.847300529479980 -11.365397453308105 2.193244934082031 0.000000000000000
-13.845516204833984 -18.471361160278320 1.282535314559937 0.000000000000000
-13.835216522216797 -11.302237510681152 2.647613763809204 0.000000000000000
-13.827887535095215 -10.941000938415527 0.335488617420197 0.000000000000000
-13.823308944702148 -11.331178665161133 1.441246747970581 0.000000000000000
-13.816564559936523 -11.535240173339844 1.710902810096741 0.000000000000000
-13.813527107238770 -11.141733169555664 1.780759572982788 0.000000000000000
-13.800402641296387 -14.995215415954590 0.192074134945869 0.000000000000000
-13.800083160400391 -14.291405677795410 0.225390493869781 0.000000000000000
-13.796648025512695 -11.245855331420898 0.407031893730164 0.000000000000000
-13.795607566833496 -14.142808914184570 2.244036436080933 0.000000000000000
-13.784961700439453 -12.055927276611328 1.193885803222656 0.000000000000000
-13.780928611755371 -9.523161888122559 0.157881543040276 0.000000000000000
-13.777018547058105 -10.917182922363281 1.213769793510437 0.000000000000000
-13.775359153747559 -13.086960792541504 0.653560638427734 0.000000000000000
-13.772692680358887 -9.547695159912109 -0.228156358003616 0.000000000000000
-13.771242141723633 -13.209839820861816 1.428132057189941 0.000000000000000
-13.770761489868164 -12.328930854797363 1.098116874694824 0.000000000000000
-13.758404731750488 -19.646127700805664 0.963323593139648 0.000000000000000
-13.757733345031738 -11.763505935668945 1.459571838378906 0.000000000000000
-13.755983352661133 -13.731038093566895 1.304584980010986 0.000000000000000
-13.746178627014160 -25.141237258911133 0.765339255332947 0.000000000000000
-13.742424964904785 -16.474281311035156 -0.786667108535767 0.000000000000000
-13.736140251159668 -9.559669494628906 0.157730743288994 1.000000000000000
-13.734913825988770 -13.897933006286621 0.409298658370972 0.000000000000000
-13.733149528503418 -24.541393280029297 -0.869048297405243 1.000000000000000
-13.725324630737305 -15.659554481506348 0.836346566677094 0.000000000000000
-13.725092887878418 -24.830177307128906 -0.713192164897919 1.000000000000000
-13.715186119079590 -18.983039855957031 0.985652804374695 0.000000000000000
-13.713257789611816 -19.823675155639648 0.597522854804993 0.000000000000000
-13.709766387939453 -29.932304382324219 1.069147586822510 0.000000000000000
-13.709528923034668 -11.027473449707031 0.875891745090485 0.000000000000000
-13.698727607727051 -11.166038513183594 1.493363976478577 0.000000000000000
-13.688833236694336 -11.669074058532715 2.665792226791382 0.000000000000000
-13.682188987731934 -24.694505691528320 1.786072969436646 0.000000000000000
-13.676939010620117 -10.977691650390625 0.603233814239502 0.000000000000000
-13.676901817321777 -17.009414672851562 0.289529085159302 0.000000000000000
-13.673505783081055 -11.012654304504395 1.668887376785278 0.000000000000000
-13.657988548278809 -11.715414047241211 1.631268382072449 0.000000000000000
-13.655278205871582 -12.807023048400879 1.581941962242126 0.000000000000000
-13.653979301452637 -12.551954269409180 1.352226614952087 0.000000000000000
-13.653258323669434 -12.441813468933105 0.067703261971474 0.000000000000000
-13.650560379028320 -13.514009475708008 2.181739568710327 0.000000000000000
-13.646723747253418 -10.136429786682129 1.436445116996765 0.000000000000000
-13.637833595275879 -12.804985046386719 0.176316127181053 0.000000000000000
-13.634461402893066 -10.869451522827148 0.331760108470917 0.000000000000000
-13.633600234985352 -10.057435035705566 0.941265523433685 0.000000000000000
-13.633501052856445 -24.462406158447266 -1.134589552879333 1.000000000000000
-13.631127357482910 -19.471605300903320 0.589196383953094 0.000000000000000
-13.629289627075195 -10.836958885192871 1.747213006019592 0.000000000000000
-13.622783660888672 -13.491225242614746 2.177676916122437 0.000000000000000
-13.619585037231445 -11.493969917297363 0.612996697425842 0.000000000000000
-13.618101119995117 -13.498834609985352 1.583190321922302 0.000000000000000
-13.614668846130371 -24.392562866210938 -1.185470104217529 1.000000000000000
-13.611740112304688 -10.543895721435547 0.592233479022980 0.000000000000000
-13.610025405883789 -12.846984863281250 0.104529328644276 0.000000000000000
-13.601714134216309 -11.898178100585938 1.212969303131104 0.000000000000000
-13.599613189697266 -11.563543319702148 -0.414451986551285 0.000000000000000
-13.595069885253906 -20.572658538818359 2.235455274581909 0.000000000000000
-13.586420059204102 -12.140837669372559 1.258132219314575 0.000000000000000
-13.585208892822266 -11.727268218994141 -0.209873855113983 0.000000000000000
-13.584712028503418 -10.239046096801758 0.160331949591637 0.000000000000000
-13.574739456176758 -11.644004821777344 1.303943276405334 0.000000000000000
-13.564740180969238 -15.594553947448730 0.552056729793549 0.000000000000000
-13.559821128845215 -10.818460464477539 1.197788238525391 0.000000000000000
-13.558390617370605 -12.397014617919922 1.091474652290344 0.000000000000000
-13.555894851684570 -10.226976394653320 0.714682400226593 0.000000000000000
-13.555656433105469 -11.705886840820312 1.029572725296021 0.000000000000000
-13.548292160034180 -11.361923217773438 1.220933914184570 0.000000000000000
-13.545092582702637 -23.691314697265625 1.779118895530701 0.000000000000000
-13.541421890258789 -17.174745559692383 0.206135705113411 0.000000000000000
-13.541017532348633 -12.628091812133789 0.779271304607391 0.000000000000000
-13.539299964904785 -13.187561035156250 1.646921396255493 0.000000000000000
-13.537777900695801 -11.176361083984375 1.993946671485901 0.000000000000000
-13.535069465637207 -11.508662223815918 0.952867984771729 0.000000000000000
-13.533189773559570 -11.093363761901855 1.140801072120667 0.000000000000000
-13.523156166076660 -11.915555000305176 1.523002386093140 0.000000000000000
-13.521552085876465 -10.335766792297363 -0.395140588283539 0.000000000000000
-13.516828536987305 -12.513214111328125 0.775234460830688 0.000000000000000
-13.513938903808594 -13.290315628051758 2.152848243713379 0.000000000000000
-13.513305664062500 -10.248984336853027 0.355267226696014 0.000000000000000
-13.512288093566895 -13.877537727355957 2.577528953552246 0.000000000000000
-13.511541366577148 -9.565292358398438 0.664903581142426 0.000000000000000
-13.495945930480957 -12.113894462585449 0.867925763130188 0.000000000000000
-13.490543365478516 -10.677526473999023 -0.498604297637939 0.000000000000000
-13.485738754272461 -11.303050994873047 0.368586599826813 0.000000000000000
-13.474692344665527 -15.702322006225586 -0.440646976232529 0.000000000000000
-13.473546981811523 -9.439187049865723 2.189184904098511 0.000000000000000
-13.472725868225098 -12.538047790527344 1.484005093574524 0.000000000000000
-13.458187103271484 -12.904136657714844 1.323413968086243 0.000000000000000
-13.443708419799805 -10.154861450195312 2.496907949447632 0.000000000000000
-13.426692008972168 -11.745076179504395 2.184009075164795 0.000000000000000
-13.424324035644531 -11.014319419860840 0.630659818649292 0.000000000000000
-13.415803909301758 -13.141394615173340 2.299212694168091 0.000000000000000
-13.414456367492676 -11.551293373107910 1.427422642707825 0.000000000000000
-13.405075073242188 -12.855905532836914 0.496092826128006 0.000000000000000
-13.401678085327148 -13.789915084838867 1.827864885330200 1.000000000000000
-13.401088714599609 -10.224061965942383 1.326586484909058 0.000000000000000
-13.395759582519531 -10.382580757141113 0.355015933513641 0.000000000000000
-13.394775390625000 -11.137155532836914 1.978598237037659 0.000000000000000
-13.389116287231445 -9.594855308532715 2.441199541091919 0.000000000000000
-13.388370513916016 -15.098779678344727 0.810501694679260 0.000000000000000
-13.384747505187988 -12.995203018188477 0.140010401606560 0.000000000000000
-13.384675979614258 -12.744273185729980 1.311802625656128 0.000000000000000
-13.380433082580566 -13.295701980590820 1.793041229248047 0.000000000000000
-13.377285957336426 -9.734154701232910 2.827925920486450 0.000000000000000
-13.376270294189453 -18.287069320678711 0.561639726161957 0.000000000000000
-13.374414443969727 -16.033113479614258 0.196786448359489 0.000000000000000
-13.367520332336426 -12.449721336364746 -0.424107700586319 0.000000000000000
-13.365404129028320 -15.147282600402832 1.122329354286194 0.000000000000000
-13.365328788757324 -11.829220771789551 1.129175901412964 0.000000000000000
-13.364323616027832 -13.167056083679199 1.006209611892700 0.000000000000000
-13.363088607788086 -10.373697280883789 0.711991190910339 0.000000000000000
-13.355781555175781 -13.263793945312500 3.217473268508911 0.000000000000000
-13.354871749877930 -12.410547256469727 0.872514963150024 0.000000000000000
-13.348830223083496 -10.561957359313965 0.585495769977570 0.000000000000000
-13.342484474182129 -12.535563468933105 -0.143789216876030 0.000000000000000
-13.341023445129395 -17.669462203979492 1.571501016616821 0.000000000000000
-13.337046623229980 -17.569643020629883 1.650829792022705 0.000000000000000
-13.333409309387207 -24.121578216552734 -1.116616129875183 1.000000000000000
-13.330699920654297 -12.466356277465820 1.154683947563171 0.000000000000000
-13.328307151794434 -9.283437728881836 1.988600373268127 0.000000000000000
-13.325126647949219 -10.963313102722168 2.557307481765747 0.000000000000000
-13.324069976806641 -9.171425819396973 0.525290906429291 0.000000000000000
-13.312726974487305 -10.083317756652832 1.314346909523010 0.000000000000000
-13.311087608337402 -10.607858657836914 0.323846548795700 0.000000000000000
-13.307499885559082 -12.497447013854980 0.768338263034821 0.000000000000000
-13.300041198730469 -12.098285675048828 0.860468327999115 0.000000000000000
-13.297390937805176 -12.384406089782715 1.535463809967041 0.000000000000000
-13.294118881225586 -11.631564140319824 2.350643157958984 0.000000000000000
-13.289340972900391 -22.238334655761719 3.171746969223022 0.000000000000000
-13.287895202636719 -14.962306976318359 1.150320887565613 0.000000000000000
-13.287520408630371 -10.215052604675293 1.903661489486694 0.000000000000000
-13.284856796264648 -12.119693756103516 -0.693965554237366 0.000000000000000
