# This PCD file was generated using the MATLAB® pcwrite function
# from Computer Vision Toolbox®.
# .PCD v.7 - Point Cloud Data file format
VERSION .7
FIELDS x y z intensity
SIZE 8 8 8 8
TYPE F F F F
COUNT 1 1 1 1
WIDTH 649
HEIGHT 1
VIEWPOINT 0 0 0 1 0 0 0
POINTS 649
DATA ascii
0.958590149879456 -4.641500473022461 0.071971125900745 0.000000000000000
0.960912942886353 -3.264480590820312 0.248106971383095 0.000000000000000
0.961595296859741 -12.311623573303223 1.830166578292847 0.000000000000000
0.964547216892242 -4.076508045196533 0.475802510976791 0.000000000000000
0.968799352645874 -14.134512901306152 0.896319687366486 0.000000000000000
0.969730794429779 -11.562730789184570 0.622320473194122 0.000000000000000
0.971009910106659 -10.064070701599121 1.076963901519775 0.000000000000000
0.972706019878387 -9.523197174072266 0.867818892002106 0.000000000000000
0.974520504474640 -12.128017425537109 0.465286463499069 0.000000000000000
0.974905133247375 -10.348113059997559 0.677610874176025 0.000000000000000
0.976135134696960 -10.639501571655273 0.968576908111572 0.000000000000000
0.979473352432251 -14.177802085876465 0.488829791545868 0.000000000000000
0.983361244201660 -4.415953636169434 0.602038979530334 0.000000000000000
0.983375012874603 -10.718414306640625 0.784750998020172 0.000000000000000
0.983485698699951 -11.830861091613770 1.348408102989197 0.000000000000000
0.984329164028168 -10.067909240722656 0.698503136634827 0.000000000000000
0.985684633255005 -6.813221931457520 1.176729917526245 1.000000000000000
0.987705528736115 -12.901132583618164 0.868473172187805 0.000000000000000
0.991728782653809 -4.629549503326416 0.226590007543564 1.000000000000000
0.997755289077759 -13.032400131225586 0.675848186016083 0.000000000000000
1.000432848930359 -8.604397773742676 1.480684757232666 0.000000000000000
1.002429962158203 -12.904046058654785 1.173343181610107 0.000000000000000
1.004304647445679 -9.621545791625977 0.593370914459229 0.000000000000000
1.005992531776428 -6.786338329315186 1.172686219215393 0.000000000000000
1.006605505943298 -12.830198287963867 0.516897499561310 0.000000000000000
1.008427858352661 -12.355515480041504 1.837203502655029 0.000000000000000
1.009411931037903 -9.965157508850098 0.691614568233490 0.000000000000000
1.014009952545166 -11.268457412719727 0.563243687152863 0.000000000000000
1.016299962997437 -13.130108833312988 0.528937041759491 0.000000000000000
1.017300367355347 -11.054244041442871 0.830788373947144 0.000000000000000
1.020035624504089 -7.138561248779297 0.358988314867020 0.000000000000000
1.022026300430298 -4.305347442626953 0.588847994804382 0.000000000000000
1.022120833396912 -5.047325611114502 1.071155667304993 1.000000000000000
1.027820587158203 -4.967088699340820 0.399199932813644 1.000000000000000
1.028490900993347 -4.201823711395264 0.575656950473785 0.000000000000000
1.030421137809753 -4.302264690399170 1.185391306877136 0.000000000000000
1.032624602317810 -10.365708351135254 0.478499650955200 0.000000000000000
1.037307620048523 -10.372328758239746 0.498880475759506 0.000000000000000
1.039045572280884 -4.292933940887451 0.313507199287415 0.000000000000000
1.039801120758057 -14.714816093444824 1.337300658226013 0.000000000000000
1.042607188224792 -14.109938621520996 1.004242658615112 0.000000000000000
1.043892025947571 -9.836175918579102 0.940239548683167 0.000000000000000
1.043903708457947 -10.677248954772949 0.410259127616882 0.000000000000000
1.045825004577637 -11.792607307434082 0.886014997959137 0.000000000000000
1.050807595252991 -11.638697624206543 0.716795921325684 0.000000000000000
1.051776885986328 -11.073006629943848 0.617968976497650 0.000000000000000
1.053275108337402 -11.264172554016113 0.389138787984848 0.000000000000000
1.054957866668701 -8.868206977844238 0.616666674613953 0.000000000000000
1.055143713951111 -14.836186408996582 3.093725681304932 0.000000000000000
1.056381106376648 -12.429193496704102 0.741092503070831 0.000000000000000
1.057146906852722 -4.853394031524658 0.218609496951103 0.000000000000000
1.057755351066589 -3.806915760040283 0.082764446735382 0.000000000000000
1.058030486106873 -9.764731407165527 0.526776552200317 0.000000000000000
1.059015870094299 -13.489181518554688 3.625537157058716 0.000000000000000
1.059323310852051 -11.676128387451172 0.809547245502472 0.000000000000000
1.060909509658813 -10.502801895141602 0.708547711372375 0.000000000000000
1.064436316490173 -13.702238082885742 1.002026438713074 0.000000000000000
1.064468502998352 -11.638019561767578 0.829505562782288 0.000000000000000
1.065692305564880 -7.253637313842773 0.492099076509476 1.000000000000000
1.068396210670471 -4.752834796905518 0.073975384235382 1.000000000000000
1.070433378219604 -9.262806892395020 0.464198738336563 0.000000000000000
1.072550177574158 -13.394892692565918 0.901958405971527 0.000000000000000
1.075003027915955 -3.228566646575928 0.504307389259338 0.000000000000000
1.080149888992310 -10.800720214843750 1.156189799308777 0.000000000000000
1.082458853721619 -10.455100059509277 0.664978802204132 0.000000000000000
1.082533359527588 -14.574123382568359 1.206647753715515 0.000000000000000
1.083555459976196 -10.254246711730957 0.116983428597450 0.000000000000000
1.084456086158752 -12.974173545837402 0.472849696874619 0.000000000000000
1.086419224739075 -9.828082084655762 0.283104032278061 1.000000000000000
1.088889360427856 -4.690717697143555 0.073125094175339 0.000000000000000
1.094800829887390 -13.751205444335938 0.899317622184753 0.000000000000000
1.106857538223267 -13.494688987731934 1.358632922172546 0.000000000000000
1.107333064079285 -12.356283187866211 0.593723177909851 0.000000000000000
1.107885003089905 -13.415234565734863 0.437136590480804 0.000000000000000
1.107990145683289 -9.902926445007324 0.381064087152481 0.000000000000000
1.108353018760681 -3.711742401123047 0.574089467525482 0.000000000000000
1.108809828758240 -11.647528648376465 0.966042339801788 0.000000000000000
1.108911752700806 -6.770982742309570 0.730827152729034 0.000000000000000
1.110571503639221 -10.077156066894531 0.778309643268585 0.000000000000000
1.112538218498230 -9.943575859069824 0.536630868911743 0.000000000000000
1.116043210029602 -10.300140380859375 0.396196603775024 0.000000000000000
1.117298364639282 -11.855113029479980 0.822222232818604 0.000000000000000
1.117564558982849 -5.062749385833740 0.492830872535706 0.000000000000000
1.117922544479370 -13.428221702575684 0.826507151126862 0.000000000000000
1.118711948394775 -4.571106910705566 0.306798458099365 0.000000000000000
1.118917226791382 -12.804733276367188 0.689372539520264 0.000000000000000
1.124491095542908 -14.527887344360352 1.034262299537659 0.000000000000000
1.125606417655945 -13.331933975219727 0.743337929248810 0.000000000000000
1.128359317779541 -13.276075363159180 1.266522407531738 0.000000000000000
1.128651618957520 -11.577445983886719 0.422472387552261 0.000000000000000
1.129988193511963 -3.479398012161255 0.266722261905670 0.000000000000000
1.131987094879150 -5.214493274688721 0.507214546203613 0.000000000000000
1.133159875869751 -9.841745376586914 0.512256562709808 0.000000000000000
1.137720227241516 -3.767835855484009 0.356806099414825 0.000000000000000
1.139500856399536 -10.171696662902832 0.509544610977173 0.000000000000000
1.140537023544312 -10.349058151245117 1.044733643531799 0.000000000000000
1.140917539596558 -3.442960262298584 0.306486517190933 0.000000000000000
1.140991568565369 -10.223717689514160 1.259463071823120 0.000000000000000
1.142867922782898 -6.341629981994629 0.457375049591064 0.000000000000000
1.145637989044189 -10.152802467346191 0.843600213527679 0.000000000000000
1.150318980216980 -4.820322513580322 0.449257910251617 0.000000000000000
1.150979042053223 -14.156957626342773 1.172745823860168 0.000000000000000
1.153021454811096 -9.512747764587402 0.754148900508881 0.000000000000000
1.153195381164551 -3.771460533142090 0.357528388500214 0.000000000000000
1.153224945068359 -3.392232418060303 0.088815599679947 0.000000000000000
1.154245138168335 -9.190962791442871 0.621753931045532 0.000000000000000
1.156025648117065 -12.487628936767578 1.258392810821533 0.000000000000000
1.156653046607971 -12.353461265563965 0.952526092529297 0.000000000000000
1.160782456398010 -13.283832550048828 1.774458527565002 0.000000000000000
1.161698818206787 -10.440657615661621 0.806478202342987 0.000000000000000
1.164994478225708 -10.118235588073730 0.683634638786316 0.000000000000000
1.170262575149536 -3.140197277069092 0.336263656616211 0.000000000000000
1.170824766159058 -14.419738769531250 0.608884513378143 0.000000000000000
1.172924995422363 -4.545506954193115 1.257860541343689 0.000000000000000
1.179891586303711 -9.956940650939941 0.518453240394592 0.000000000000000
1.184686422348022 -9.412102699279785 0.508781731128693 0.000000000000000
1.186084508895874 -10.033176422119141 1.147523760795593 0.000000000000000
1.190056443214417 -14.574601173400879 1.094383716583252 0.000000000000000
1.191872239112854 -5.054185867309570 1.391411304473877 0.000000000000000
1.192882418632507 -12.695044517517090 0.659323811531067 0.000000000000000
1.193625688552856 -13.403383255004883 1.350246310234070 0.000000000000000
1.195188045501709 -14.251004219055176 1.208432555198669 0.000000000000000
1.195670247077942 -11.548570632934570 0.198604598641396 0.000000000000000
1.199170589447021 -11.143600463867188 1.273020029067993 0.000000000000000
1.199884057044983 -4.804613113403320 0.846490681171417 0.000000000000000
1.199900031089783 -9.797845840454102 0.643522143363953 0.000000000000000
1.200886487960815 -13.236473083496094 1.768654584884644 0.000000000000000
1.201898574829102 -14.141325950622559 1.062143325805664 0.000000000000000
1.202054619789124 -13.800578117370605 0.929818153381348 0.000000000000000
1.202308177947998 -12.857995986938477 1.041311264038086 0.000000000000000
1.202816605567932 -11.505846023559570 0.598183512687683 0.000000000000000
1.203203558921814 -12.127350807189941 1.806124091148376 0.000000000000000
1.204809427261353 -13.279712677001953 0.509919703006744 0.000000000000000
1.206498026847839 -4.481118202209473 0.465657234191895 0.000000000000000
1.207157731056213 -11.516262054443359 0.621035099029541 0.000000000000000
1.208522677421570 -10.270642280578613 1.101536631584167 0.000000000000000
1.210083127021790 -4.389588832855225 0.412782758474350 0.000000000000000
1.212988257408142 -13.180638313293457 1.258194923400879 0.000000000000000
1.214383482933044 -6.881494522094727 0.855521082878113 0.000000000000000
1.219096541404724 -4.599140167236328 0.414595037698746 0.000000000000000
1.219853758811951 -5.008601188659668 0.226875513792038 1.000000000000000
1.220905184745789 -13.549074172973633 1.044380187988281 0.000000000000000
1.221430420875549 -10.834657669067383 0.988439619541168 0.000000000000000
1.221544981002808 -13.479842185974121 0.491577833890915 0.000000000000000
1.224496364593506 -12.122280120849609 0.442507147789001 0.000000000000000
1.227070450782776 -10.054609298706055 0.679884314537048 0.000000000000000
1.227106571197510 -11.190175056457520 1.070071339607239 0.000000000000000
1.227614521980286 -10.128161430358887 1.086708188056946 0.000000000000000
1.233378529548645 -14.934819221496582 1.179397225379944 0.000000000000000
1.235821962356567 -12.028611183166504 1.792050480842590 0.000000000000000
1.237076401710510 -12.302647590637207 0.425302565097809 0.000000000000000
1.243154764175415 -13.082943916320801 1.608962893486023 0.000000000000000
1.243870615959167 -9.882309913635254 0.687756896018982 0.000000000000000
1.244266152381897 -12.726594924926758 1.701644062995911 0.000000000000000
1.246351957321167 -10.856537818908691 0.838933348655701 0.000000000000000
1.249317646026611 -9.653504371643066 0.522063612937927 0.000000000000000
1.249772071838379 -5.243557929992676 0.382609099149704 0.000000000000000
1.251503229141235 -4.464624881744385 0.465257912874222 0.000000000000000
1.251823067665100 -6.799257278442383 0.184659734368324 0.000000000000000
1.254248261451721 -9.747740745544434 0.792476773262024 0.000000000000000
1.255741596221924 -10.393611907958984 0.803722679615021 0.000000000000000
1.261132597923279 -5.024118423461914 0.407673478126526 0.000000000000000
1.266158461570740 -11.392153739929199 1.301911234855652 0.000000000000000
1.266327977180481 -7.208185195922852 0.505347073078156 1.000000000000000
1.268893599510193 -12.561803817749023 1.545771002769470 0.000000000000000
1.270240426063538 -11.005276679992676 1.474230527877808 0.000000000000000
1.274006485939026 -7.174709796905518 1.952530860900879 0.000000000000000
1.274107098579407 -5.033002853393555 0.048932723701000 0.000000000000000
1.276172161102295 -10.548800468444824 0.467644929885864 0.000000000000000
1.277186155319214 -12.335905075073242 1.320996522903442 0.000000000000000
1.279414653778076 -13.575252532958984 1.152187347412109 0.000000000000000
1.281366825103760 -7.006409168243408 0.601858735084534 0.000000000000000
1.286875247955322 -3.655909299850464 0.662500262260437 1.000000000000000
1.291510105133057 -4.064462661743164 0.887063562870026 0.000000000000000
1.292472600936890 -13.713803291320801 1.833026766777039 0.000000000000000
1.302005410194397 -7.213124275207520 1.252887129783630 1.000000000000000
1.307188749313354 -14.035122871398926 0.674607217311859 0.000000000000000
1.307487726211548 -8.381978988647461 1.257249951362610 0.000000000000000
1.308378338813782 -12.952694892883301 0.673162996768951 0.000000000000000
1.310622572898865 -13.638778686523438 0.418621957302094 0.000000000000000
1.315146207809448 -13.201722145080566 0.813772797584534 0.000000000000000
1.324933290481567 -9.749431610107422 0.755346119403839 0.000000000000000
1.332612514495850 -5.090837001800537 1.410046219825745 1.000000000000000
1.332924127578735 -7.434875965118408 1.005157113075256 0.000000000000000
1.336106061935425 -12.953544616699219 0.598170399665833 0.000000000000000
1.337363004684448 -4.373770713806152 0.781790792942047 0.000000000000000
1.341498851776123 -5.712333679199219 0.055303782224655 1.000000000000000
1.343559741973877 -12.315616607666016 1.836030602455139 0.000000000000000
1.347027659416199 -13.298181533813477 0.511142551898956 0.000000000000000
1.351259827613831 -12.800492286682129 0.913617253303528 0.000000000000000
1.353999733924866 -4.484097957611084 0.800661623477936 0.000000000000000
1.357102394104004 -14.122463226318359 3.801534175872803 0.000000000000000
1.362206339836121 -13.448028564453125 1.798730134963989 0.000000000000000
1.363021135330200 -5.540042400360107 0.975216567516327 0.000000000000000
1.364055633544922 -5.238187789916992 0.802200555801392 0.000000000000000
1.365319371223450 -10.326059341430664 0.038176551461220 0.000000000000000
1.371123909950256 -4.560358524322510 0.633697509765625 0.000000000000000
1.371778607368469 -3.814021110534668 0.692828357219696 0.000000000000000
1.372886419296265 -13.097311019897461 1.112781882286072 0.000000000000000
1.374611973762512 -10.338022232055664 0.559338569641113 0.000000000000000
1.381259202957153 -4.536578655242920 0.631059348583221 0.000000000000000
1.381303071975708 -14.128234863281250 0.761351764202118 0.000000000000000
1.382870554924011 -12.762732505798340 0.886423945426941 0.000000000000000
1.385573029518127 -14.745719909667969 0.994109809398651 0.000000000000000
1.388887763023376 -13.249962806701660 1.772875666618347 0.000000000000000
1.389425277709961 -10.080237388610840 0.761531114578247 0.000000000000000
1.390761971473694 -6.735860347747803 0.599322497844696 0.000000000000000
1.394884109497070 -5.503638267517090 0.970498859882355 1.000000000000000
1.396796464920044 -12.791195869445801 1.166481614112854 0.000000000000000
1.397628664970398 -10.237486839294434 0.395126610994339 0.000000000000000
1.401016473770142 -12.275608062744141 0.781659424304962 0.000000000000000
1.403679847717285 -7.450858116149902 0.760786533355713 1.000000000000000
1.409286856651306 -13.211034774780273 0.610284328460693 0.000000000000000
1.410180926322937 -10.067101478576660 0.545199811458588 0.000000000000000
1.414896607398987 -10.006683349609375 0.444781482219696 0.000000000000000
1.415873289108276 -7.273191928863525 0.183677792549133 0.000000000000000
1.416038632392883 -5.187191009521484 0.539539396762848 0.000000000000000
1.417973875999451 -6.898050308227539 0.499855697154999 0.000000000000000
1.422970294952393 -7.090349197387695 0.485402017831802 1.000000000000000
1.425778508186340 -6.852295398712158 0.591417968273163 0.000000000000000
1.426225900650024 -6.700661182403564 0.486261904239655 0.000000000000000
1.427256584167480 -10.189002037048340 0.393445253372192 0.000000000000000
1.431452989578247 -13.015906333923340 1.141004443168640 0.000000000000000
1.432550549507141 -14.380251884460449 1.450087070465088 0.000000000000000
1.433493494987488 -10.803938865661621 1.334321260452271 0.000000000000000
1.435983300209045 -13.252917289733887 1.773930907249451 0.000000000000000
1.439995408058167 -10.829750061035156 0.923164367675781 0.000000000000000
1.455486893653870 -7.208017349243164 0.521945655345917 0.000000000000000
1.456789612770081 -14.487682342529297 1.174087285995483 0.000000000000000
1.459577322006226 -7.402590274810791 0.637559354305267 0.000000000000000
1.460408210754395 -13.386696815490723 0.955814719200134 0.000000000000000
1.460660338401794 -4.859696388244629 0.311256438493729 1.000000000000000
1.461592197418213 -8.522006034851074 0.164510414004326 0.000000000000000
1.462548613548279 -11.301144599914551 0.962906599044800 0.000000000000000
1.463365912437439 -11.193863868713379 1.073099374771118 0.000000000000000
1.464868068695068 -8.694036483764648 0.744998037815094 0.000000000000000
1.465503931045532 -13.420386314392090 0.984283685684204 0.000000000000000
1.466280579566956 -10.329751968383789 0.800967037677765 0.000000000000000
1.471269130706787 -13.050844192504883 2.244952678680420 0.000000000000000
1.471353054046631 -10.405963897705078 0.624377548694611 0.000000000000000
1.482352256774902 -13.253048896789551 0.869392395019531 0.000000000000000
1.483695745468140 -5.369680404663086 0.485430389642715 1.000000000000000
1.484010219573975 -11.255484580993652 0.893492281436920 0.000000000000000
1.485404729843140 -12.952791213989258 1.051277518272400 0.000000000000000
1.490632414817810 -11.618505477905273 1.247702002525330 0.000000000000000
1.492906332015991 -14.343712806701660 1.162835001945496 0.000000000000000
1.494074940681458 -14.562243461608887 3.044851779937744 0.000000000000000
1.494927883148193 -10.887792587280273 1.345501303672791 0.000000000000000
1.495195031166077 -13.519511222839355 1.070496082305908 0.000000000000000
1.496075749397278 -13.283401489257812 0.742672264575958 0.000000000000000
1.496191501617432 -13.528520584106445 1.449791669845581 0.000000000000000
1.499281048774719 -6.702999591827393 0.567117869853973 0.000000000000000
1.500151157379150 -14.900608062744141 1.149706006050110 0.000000000000000
1.502695918083191 -14.035567283630371 0.893036484718323 0.000000000000000
1.507634043693542 -6.963669300079346 0.620850861072540 1.000000000000000
1.508400201797485 -10.583995819091797 0.841395437717438 0.000000000000000
1.514120101928711 -13.030378341674805 1.606046319007874 0.000000000000000
1.517478942871094 -12.434214591979980 1.533618807792664 0.000000000000000
1.518621563911438 -8.102169990539551 0.585100173950195 0.000000000000000
1.524559020996094 -13.626110076904297 1.824584484100342 0.000000000000000
1.526388645172119 -11.412405967712402 1.409665346145630 0.000000000000000
1.530992746353149 -14.020101547241211 2.410746097564697 0.000000000000000
1.531860828399658 -11.282422065734863 0.216633275151253 0.000000000000000
1.534519433975220 -5.277724266052246 0.939496815204620 0.000000000000000
1.543984770774841 -5.556505680084229 0.442736357450485 0.000000000000000
1.544169187545776 -7.100654125213623 0.557860076427460 0.000000000000000
1.546540260314941 -5.389163970947266 0.958367645740509 0.000000000000000
1.549999475479126 6.596029758453369 0.063861355185509 0.000000000000000
1.551113128662109 -11.361744880676270 0.968968927860260 0.000000000000000
1.552230477333069 -5.481083869934082 0.516429901123047 0.000000000000000
1.554692387580872 -4.680121898651123 0.350040584802628 0.000000000000000
1.556922078132629 -13.231518745422363 1.048527479171753 0.000000000000000
1.560966014862061 -13.121822357177734 0.505334138870239 0.000000000000000
1.566404461860657 -12.368117332458496 1.526327371597290 0.000000000000000
1.570454239845276 -5.292263984680176 0.200492903590202 0.000000000000000
1.571766257286072 -5.365287303924561 0.117110021412373 1.000000000000000
1.572427153587341 6.507598876953125 0.992195427417755 0.000000000000000
1.577044486999512 -5.643773078918457 0.531236648559570 0.000000000000000
1.580838322639465 -13.596276283264160 1.240876317024231 0.000000000000000
1.586436986923218 6.545547962188721 0.478048950433731 0.000000000000000
1.590055942535400 -5.690337181091309 0.430769532918930 0.000000000000000
1.595944762229919 -12.945611000061035 1.076964378356934 0.000000000000000
1.596199989318848 -14.361675262451172 0.719368815422058 0.000000000000000
1.597300529479980 -13.118750572204590 0.657913208007812 0.000000000000000
1.599701881408691 -14.333934783935547 1.190848827362061 0.000000000000000
1.599899053573608 -13.501324653625488 0.075934000313282 0.000000000000000
1.604095816612244 -13.569166183471680 1.101751565933228 0.000000000000000
1.605327129364014 -13.244394302368164 0.844040691852570 0.000000000000000
1.606174230575562 -13.047353744506836 1.609449028968811 0.000000000000000
1.612170100212097 -12.280432701110840 1.242817640304565 0.000000000000000
1.613098025321960 -8.430568695068359 1.467205524444580 0.000000000000000
1.614170074462891 -13.484784126281738 0.545471370220184 0.000000000000000
1.620330572128296 -13.147201538085938 0.940238475799561 0.000000000000000
1.622997522354126 -7.091494560241699 0.774888634681702 0.000000000000000
1.634622454643250 -14.322446823120117 1.134518623352051 0.000000000000000
1.637192726135254 -11.711511611938477 0.793734073638916 0.000000000000000
1.642252683639526 -5.309854984283447 0.394503653049469 0.000000000000000
1.642528414726257 -12.410943984985352 0.961099147796631 0.000000000000000
1.644009232521057 -5.368595123291016 0.832107186317444 0.000000000000000
1.644020438194275 -11.468256950378418 1.418415069580078 0.000000000000000
1.646827220916748 -14.176762580871582 1.013021945953369 0.000000000000000
1.657230615615845 6.634960651397705 0.485412269830704 0.000000000000000
1.659917831420898 -13.744970321655273 0.556066155433655 0.000000000000000
1.661195635795593 -13.560644149780273 0.522453725337982 0.000000000000000
1.662903904914856 -13.276895523071289 1.027234077453613 0.000000000000000
1.666960716247559 -11.996222496032715 1.290068864822388 0.000000000000000
1.667297720909119 -5.192402839660645 0.397611051797867 0.000000000000000
1.667794823646545 -13.614514350891113 0.735644876956940 0.000000000000000
1.673961281776428 -5.340961456298828 0.408082157373428 0.000000000000000
1.676131725311279 -8.440340995788574 0.627393603324890 0.000000000000000
1.676861524581909 -13.688528060913086 1.165322422981262 0.000000000000000
1.678280830383301 -3.606971025466919 0.680023193359375 0.000000000000000
1.681548953056335 -7.310363292694092 0.633854568004608 0.000000000000000
1.682097077369690 -6.712075710296631 0.531222403049469 0.000000000000000
1.684667587280273 -13.046079635620117 0.882938802242279 0.000000000000000
1.684854030609131 -12.580489158630371 1.047999620437622 0.000000000000000
1.690776944160461 -5.461344242095947 0.977238416671753 0.000000000000000
1.692179322242737 -9.632213592529297 0.073397390544415 0.000000000000000
1.705943346023560 -3.633211135864258 0.686088740825653 0.000000000000000
1.709229588508606 -2.758962631225586 0.869632005691528 0.000000000000000
1.709705114364624 -2.781369924545288 0.874808371067047 0.000000000000000
1.716773509979248 -12.014573097229004 0.978620409965515 0.000000000000000
1.717850804328918 -5.694105148315430 0.728165090084076 0.000000000000000
1.722247838973999 -3.082989454269409 0.946242451667786 0.000000000000000
1.727213144302368 -13.462497711181641 0.440771818161011 0.000000000000000
1.743304491043091 -7.049114227294922 0.459398567676544 0.000000000000000
1.749595403671265 -5.727672100067139 0.425089746713638 0.000000000000000
1.758673906326294 -7.354804039001465 1.572929024696350 0.000000000000000
1.762401938438416 -14.710045814514160 1.343078851699829 0.000000000000000
1.771618485450745 -5.748736858367920 0.496680706739426 0.000000000000000
1.774455904960632 -7.592844009399414 0.538412272930145 0.000000000000000
1.788033246994019 -7.363842487335205 1.576187252998352 0.000000000000000
1.790461421012878 -5.774767398834229 0.896025240421295 0.000000000000000
1.791255235671997 -5.204543590545654 0.940844714641571 0.000000000000000
1.796373128890991 6.787481784820557 0.390085995197296 0.000000000000000
1.797350168228149 -9.746993064880371 0.942132115364075 0.000000000000000
1.800397872924805 -7.317774295806885 0.549442052841187 0.000000000000000
1.800699710845947 -2.884073495864868 0.911043107509613 0.000000000000000
1.808248877525330 -7.562128067016602 0.103141747415066 1.000000000000000
1.811940789222717 6.784036636352539 0.174062713980675 0.000000000000000
1.817117571830750 -9.049386978149414 0.637332499027252 0.000000000000000
1.818854689598083 -9.674130439758301 0.935697317123413 0.000000000000000
1.825633525848389 6.830533504486084 0.283972561359406 0.000000000000000
1.826443433761597 6.804991245269775 0.174657464027405 0.000000000000000
1.827905058860779 -5.767174720764160 0.896611571311951 0.000000000000000
1.842798471450806 -14.771736145019531 0.941779673099518 0.000000000000000
1.848109126091003 -5.499162673950195 0.411779165267944 0.000000000000000
1.848603129386902 -13.652814865112305 1.084304809570312 0.000000000000000
1.851684451103210 -7.564920425415039 0.658104062080383 0.000000000000000
1.863865733146667 -14.791381835937500 0.971918821334839 0.000000000000000
1.872519850730896 -5.753453731536865 1.258506178855896 0.000000000000000
1.877336502075195 -5.606863975524902 0.476772010326385 1.000000000000000
1.878247261047363 -7.373495101928711 0.810476779937744 0.000000000000000
1.880503296852112 -14.222452163696289 0.714197814464569 0.000000000000000
1.881874442100525 -3.396528244018555 1.040452599525452 0.000000000000000
1.884037613868713 -9.215869903564453 0.794844210147858 0.000000000000000
1.895669937133789 -5.635471820831299 1.016327977180481 0.000000000000000
1.897986650466919 -5.901623725891113 1.289459705352783 0.000000000000000
1.898908734321594 -3.995672225952148 1.185391306877136 0.000000000000000
1.902088880538940 -11.534560203552246 0.987829625606537 0.000000000000000
1.904374122619629 -5.632379055023193 0.467930078506470 0.000000000000000
1.904704451560974 -4.044221401214600 1.197814583778381 0.000000000000000
1.905577659606934 -10.556921005249023 0.782133221626282 0.000000000000000
1.908331394195557 -5.739330768585205 1.033850908279419 0.000000000000000
1.910078644752502 -11.452233314514160 3.111005067825317 0.000000000000000
1.915428996086121 -5.965148925781250 1.070918560028076 0.000000000000000
1.920330405235291 -14.442197799682617 1.006009817123413 0.000000000000000
1.925214409828186 -5.858330249786377 1.054069638252258 0.000000000000000
1.927384138107300 -11.200312614440918 0.784748256206512 0.000000000000000
1.927900314331055 -9.606305122375488 0.205235719680786 0.000000000000000
1.929453492164612 -7.155339717864990 0.126770347356796 1.000000000000000
1.945595145225525 -7.393034934997559 0.645979285240173 0.000000000000000
1.947519898414612 -14.678048133850098 0.993841946125031 0.000000000000000
1.948803305625916 -7.376965999603271 0.629984676837921 0.000000000000000
1.966759443283081 -5.942755699157715 0.710995197296143 0.000000000000000
1.966892600059509 -2.811206340789795 0.919325292110443 0.000000000000000
1.968474864959717 -2.881137371063232 0.596452474594116 0.000000000000000
1.970630049705505 -11.646121025085449 0.088647238910198 0.000000000000000
1.974699139595032 -2.843442440032959 0.927607476711273 0.000000000000000
1.985284328460693 -6.985123157501221 0.180010199546814 0.000000000000000
1.996331334114075 -4.706259250640869 0.757633864879608 0.000000000000000
1.996683478355408 -11.365510940551758 0.441288411617279 0.000000000000000
1.998235225677490 -14.538398742675781 1.041625618934631 0.000000000000000
2.000259160995483 -14.772866249084473 1.587907433509827 0.000000000000000
2.000808715820312 -7.469206333160400 0.548850059509277 0.000000000000000
2.004925489425659 -11.333478927612305 0.839142620563507 0.000000000000000
2.006305694580078 -5.800084590911865 0.653719604015350 0.000000000000000
2.008167266845703 -6.407283306121826 1.147749662399292 0.000000000000000
2.009349822998047 -13.033769607543945 1.754935860633850 0.000000000000000
2.013955593109131 -4.654422283172607 1.054864406585693 0.000000000000000
2.022866964340210 -7.607301235198975 0.619513094425201 0.000000000000000
2.026677131652832 -4.196494579315186 0.969334840774536 0.000000000000000
2.027629613876343 -9.333980560302734 1.415579080581665 0.000000000000000
2.034325599670410 -4.846096515655518 0.898385405540466 0.000000000000000
2.035269021987915 -5.981300354003906 0.572767734527588 0.000000000000000
2.037967681884766 -8.731405258178711 0.325637638568878 0.000000000000000
2.040360927581787 -4.507984638214111 0.845816791057587 0.000000000000000
2.040702819824219 -11.616077423095703 0.996586441993713 0.000000000000000
2.043961763381958 -11.400950431823730 0.978736102581024 0.000000000000000
2.047019958496094 -4.779280662536621 0.770534753799438 0.000000000000000
2.050059556961060 -2.978176355361938 0.618019104003906 0.000000000000000
2.051590204238892 -2.556411504745483 0.681792616844177 0.000000000000000
2.053151607513428 -7.407944202423096 0.367898046970367 0.000000000000000
2.053174018859863 -6.471641063690186 1.160554885864258 0.000000000000000
2.053185701370239 -2.961640596389771 0.615997195243835 0.000000000000000
2.056905746459961 -6.135341644287109 0.861111044883728 0.000000000000000
2.062559843063354 -6.587276458740234 0.489943563938141 0.000000000000000
2.064347267150879 -6.576074123382568 1.433638095855713 0.000000000000000
2.065064191818237 -6.201307296752930 1.359512448310852 0.000000000000000
2.075800657272339 -8.755313873291016 0.188481777906418 0.000000000000000
2.080225467681885 -8.961195945739746 2.464992523193359 0.000000000000000
2.081701517105103 -2.612561941146851 0.694825708866119 0.000000000000000
2.084197998046875 -6.186638832092285 1.357883334159851 0.000000000000000
2.091639995574951 -6.028723716735840 0.539214193820953 0.000000000000000
2.092879295349121 -6.119421005249023 0.688884019851685 0.000000000000000
2.097791910171509 -11.865672111511230 0.855277180671692 0.000000000000000
2.099749565124512 -3.525299072265625 1.099463343620300 0.000000000000000
2.102334499359131 -7.531743526458740 0.073700673878193 0.000000000000000
2.107001543045044 -11.743147850036621 0.777795255184174 0.000000000000000
2.113452434539795 -14.633772850036621 1.810204863548279 0.000000000000000
2.116213321685791 -6.388363838195801 0.823925137519836 0.000000000000000
2.119669198989868 -3.711356878280640 0.730570018291473 0.000000000000000
2.120222806930542 -4.277156829833984 0.992957293987274 0.000000000000000
2.126725435256958 -3.044964313507080 0.634868025779724 0.000000000000000
2.127443552017212 -8.568375587463379 0.746008455753326 0.000000000000000
2.132622480392456 -3.762958288192749 0.739331424236298 0.000000000000000
2.134943723678589 -11.844170570373535 0.993690550327301 0.000000000000000
2.137654542922974 -7.314470767974854 0.599741399288177 0.000000000000000
2.139884710311890 -3.564324617385864 1.113957285881042 0.000000000000000
2.141350984573364 -9.828532218933105 1.071456193923950 0.000000000000000
2.141677379608154 -7.570544719696045 0.074153058230877 0.000000000000000
2.144359588623047 -12.726839065551758 1.717473268508911 0.000000000000000
2.144404649734497 -7.522011280059814 0.888405442237854 0.000000000000000
2.147077322006226 -12.683504104614258 1.574936509132385 0.000000000000000
2.147497177124023 -9.046462059020996 0.642016708850861 0.000000000000000
2.148780107498169 -9.493162155151367 0.822461664676666 0.000000000000000
2.151161193847656 -5.814722061157227 0.499919414520264 0.000000000000000
2.152370691299438 -9.744119644165039 1.478910684585571 0.000000000000000
2.159661769866943 -4.318767070770264 1.004361152648926 0.000000000000000
2.160468339920044 -12.409608840942383 1.097600460052490 0.000000000000000
2.160526990890503 -6.476286888122559 1.829333066940308 0.000000000000000
2.165683746337891 -14.634160995483398 1.811176896095276 0.000000000000000
2.170530796051025 -11.674737930297852 0.774152219295502 0.000000000000000
2.176480054855347 -12.217449188232422 1.321843981742859 0.000000000000000
2.176935672760010 -8.290906906127930 0.031417950987816 0.000000000000000
2.177419662475586 -7.522160530090332 1.042092084884644 0.000000000000000
2.178957939147949 -4.769809246063232 0.896363556385040 0.000000000000000
2.179411411285400 -6.241224288940430 0.663341939449310 1.000000000000000
2.186846017837524 -6.080191612243652 0.585768759250641 0.000000000000000
2.187382459640503 -12.711201667785645 1.089879512786865 0.000000000000000
2.187492132186890 -7.324720382690430 1.590034961700439 0.000000000000000
2.194435834884644 -7.226818084716797 0.594406127929688 0.000000000000000
2.197519779205322 -7.311730384826660 0.512458086013794 0.000000000000000
2.201322793960571 -6.999162197113037 1.965989470481873 0.000000000000000
2.203848361968994 -4.780076980590820 0.899733304977417 1.000000000000000
2.205571651458740 -2.246287345886230 0.274313300848007 0.000000000000000
2.206534624099731 -7.432936668395996 0.535381317138672 0.000000000000000
2.206565618515015 -10.021022796630859 0.847220778465271 0.000000000000000
2.207052469253540 -13.012958526611328 0.936839997768402 0.000000000000000
2.207510948181152 -9.629232406616211 0.644042611122131 0.000000000000000
2.209725856781006 -5.212869644165039 0.967803061008453 0.000000000000000
2.213196039199829 -6.929847717285156 0.138410925865173 1.000000000000000
2.217683553695679 -11.313035011291504 0.907301008701324 0.000000000000000
2.222594499588013 -10.555178642272949 0.848927497863770 0.000000000000000
2.223639488220215 -14.765872955322266 1.987098217010498 0.000000000000000
2.232752561569214 -6.925958633422852 0.320263803005219 1.000000000000000
2.232956647872925 -6.265332698822021 0.985745012760162 0.000000000000000
2.233192205429077 -2.318361282348633 0.240907713770866 0.000000000000000
2.245700359344482 -3.657766819000244 0.892765522003174 0.000000000000000
2.248790740966797 -13.768702507019043 1.215659379959106 0.000000000000000
2.250407695770264 -12.381966590881348 1.340485215187073 0.000000000000000
2.260679960250854 -4.048992156982422 0.687265396118164 0.000000000000000
2.261500835418701 -10.868780136108398 0.766562402248383 0.000000000000000
2.262761354446411 -14.687763214111328 1.819440603256226 0.000000000000000
2.268071651458740 -6.537251949310303 0.477792680263519 0.000000000000000
2.268265724182129 -9.082659721374512 0.848678529262543 0.000000000000000
2.282544851303101 -8.206111907958984 0.719738125801086 0.000000000000000
2.284654140472412 -2.424246311187744 0.242871418595314 0.000000000000000
2.285242319107056 -3.693198919296265 0.903354883193970 0.000000000000000
2.287013053894043 -6.289663791656494 0.606714844703674 0.000000000000000
2.289905309677124 -3.131166219711304 1.039417386054993 0.000000000000000
2.295719623565674 -7.508021831512451 0.572420299053192 0.000000000000000
2.298730850219727 -11.947242736816406 0.957514882087708 0.000000000000000
2.304915428161621 -6.909098625183105 0.730834245681763 0.000000000000000
2.309816122055054 -10.372629165649414 0.733772695064545 0.000000000000000
2.312817811965942 -6.488696575164795 1.432823419570923 0.000000000000000
2.318324327468872 -8.241074562072754 0.972370624542236 0.000000000000000
2.319610357284546 -6.839625358581543 0.610278666019440 0.000000000000000
2.325896024703979 -11.889230728149414 0.183966681361198 0.000000000000000
2.327658891677856 -10.703426361083984 2.935008049011230 0.000000000000000
2.328614473342896 -13.030606269836426 1.067352056503296 0.000000000000000
2.328933238983154 -2.182734251022339 0.278132855892181 0.000000000000000
2.331377029418945 -7.226274967193604 0.808782041072845 0.000000000000000
2.338056564331055 -7.525598049163818 0.790738761425018 0.000000000000000
2.339287042617798 -12.086386680603027 0.850052118301392 0.000000000000000
2.340333938598633 -12.495804786682129 1.556465029716492 0.000000000000000
2.343081235885620 -14.763609886169434 1.830134510993958 0.000000000000000
2.347307682037354 -12.769383430480957 0.921546995639801 0.000000000000000
2.347594499588013 -7.464236736297607 0.785147666931152 0.000000000000000
2.347687721252441 -7.685654640197754 1.190986394882202 0.000000000000000
2.348077058792114 -11.001505851745605 1.069314241409302 0.000000000000000
2.352395296096802 -4.151756286621094 0.707203149795532 0.000000000000000
2.354934930801392 -11.584187507629395 1.259141087532043 0.000000000000000
2.361762046813965 -6.416316509246826 0.649915993213654 0.000000000000000
2.364479780197144 -11.992014884948730 0.843990206718445 0.000000000000000
2.365217208862305 -3.257952451705933 1.078757882118225 0.000000000000000
2.366108894348145 -6.406386852264404 0.727437853813171 0.000000000000000
2.368765592575073 -5.217315673828125 1.535314559936523 0.000000000000000
2.375753402709961 -7.007581233978271 0.496653079986572 0.000000000000000
2.379550933837891 -2.302806138992310 0.332269996404648 0.000000000000000
2.381516456604004 -12.892204284667969 1.142393350601196 0.000000000000000
2.388102054595947 -11.540841102600098 1.255328059196472 0.000000000000000
2.393547058105469 -2.468569278717041 0.509585022926331 0.000000000000000
2.395634651184082 -5.878533840179443 1.085071682929993 0.000000000000000
2.401269674301147 -11.648516654968262 2.473840236663818 0.000000000000000
2.401784896850586 -11.748456954956055 0.828008651733398 0.000000000000000
2.403925180435181 -8.414510726928711 0.604267179965973 0.000000000000000
2.406598806381226 -7.054803371429443 0.299383193254471 0.000000000000000
2.407475709915161 -10.467924118041992 0.700249969959259 0.000000000000000
2.407618999481201 -7.620221614837646 0.675280749797821 0.000000000000000
2.407681703567505 -3.953410148620605 0.791226148605347 0.000000000000000
2.411623716354370 -13.772550582885742 1.588115096092224 0.000000000000000
2.414258003234863 -3.995535850524902 0.797965705394745 0.000000000000000
2.421640872955322 -12.985046386718750 1.116149783134460 0.000000000000000
2.421865940093994 -6.923120975494385 0.781243681907654 0.000000000000000
2.423938035964966 -7.032450675964355 0.707072198390961 0.000000000000000
2.433007478713989 -8.630253791809082 0.619146585464478 0.000000000000000
2.433024644851685 -3.451717615127563 1.131556868553162 0.000000000000000
2.435554981231689 -6.654746532440186 0.804891765117645 0.000000000000000
2.436308145523071 -14.066661834716797 1.013305187225342 0.000000000000000
2.442967891693115 -11.425584793090820 3.130675315856934 0.000000000000000
2.447428941726685 -2.019945144653320 0.470295965671539 0.000000000000000
2.448503971099854 -6.659143447875977 0.868645548820496 0.000000000000000
2.453398466110229 -4.863650798797607 1.133062720298767 0.000000000000000
2.454872369766235 -3.700762271881104 0.923719048500061 0.000000000000000
2.457983493804932 -7.230203151702881 1.131759524345398 0.000000000000000
2.464883089065552 -6.634248256683350 1.209753870964050 1.000000000000000
2.467780590057373 -11.267237663269043 1.534909367561340 0.000000000000000
2.473175525665283 -11.789076805114746 1.145017981529236 0.000000000000000
2.486345529556274 -8.819452285766602 1.219379663467407 0.000000000000000
2.500894308090210 -14.711208343505859 1.116773009300232 0.000000000000000
2.507697582244873 -6.747318267822266 0.881283938884735 0.000000000000000
2.510380506515503 -6.702188968658447 0.952392995357513 1.000000000000000
2.511489868164062 -1.664273619651794 0.302317798137665 0.000000000000000
2.512061834335327 -5.909728050231934 1.720629096031189 0.000000000000000
2.513000726699829 -3.817251682281494 0.950599789619446 0.000000000000000
2.513444185256958 -7.105235099792480 0.593150794506073 0.000000000000000
2.525720596313477 -1.754636883735657 0.278799921274185 0.000000000000000
2.528339147567749 -8.559658050537109 0.221246004104614 0.000000000000000
2.534332752227783 -13.879421234130859 0.295539438724518 0.000000000000000
2.535153388977051 -6.751102924346924 1.232668399810791 0.000000000000000
2.536638259887695 -4.362057685852051 1.352070808410645 0.000000000000000
2.546677827835083 -2.060346364974976 0.232510775327682 0.000000000000000
2.550241231918335 -2.878876924514771 0.569984614849091 0.000000000000000
2.551774501800537 -14.733336448669434 2.216020584106445 0.000000000000000
2.551781177520752 -1.716730475425720 0.824079871177673 0.000000000000000
2.559800863265991 -14.594795227050781 1.223434209823608 0.000000000000000
2.560386657714844 -12.741707801818848 0.847273766994476 0.000000000000000
2.561963796615601 -12.166854858398438 1.324386000633240 0.000000000000000
2.563334941864014 -13.766148567199707 0.508563876152039 0.000000000000000
2.563961029052734 -2.898437976837158 0.573503017425537 0.000000000000000
2.564364671707153 -3.128805160522461 0.841447710990906 0.000000000000000
2.571549654006958 -12.614774703979492 1.038096308708191 0.000000000000000
2.579162120819092 -7.569311618804932 1.185122370719910 0.000000000000000
2.583178281784058 -14.623064041137695 1.226067304611206 0.000000000000000
2.590711355209351 -14.450647354125977 1.013725042343140 0.000000000000000
2.599498271942139 -14.213844299316406 0.997743546962738 0.000000000000000
2.600787878036499 -6.963161945343018 0.584991037845612 0.000000000000000
2.601521968841553 -6.846395492553711 1.085433721542358 0.000000000000000
2.605576992034912 -8.463249206542969 0.714032828807831 0.000000000000000
2.606423616409302 -12.980192184448242 1.761795163154602 0.000000000000000
2.607640981674194 -12.538904190063477 0.859633028507233 0.000000000000000
2.608579635620117 -3.699129819869995 0.482134073972702 1.000000000000000
2.609805822372437 -3.719722270965576 0.604677200317383 0.000000000000000
2.610392332077026 -6.081998348236084 1.773428201675415 0.000000000000000
2.612136125564575 -4.528183460235596 1.400728702545166 0.000000000000000
2.612598180770874 -8.779454231262207 0.033573079854250 0.000000000000000
2.612762928009033 -13.936957359313965 1.170770883560181 0.000000000000000
2.615492343902588 -2.754612684249878 0.562947750091553 0.000000000000000
2.619610071182251 -4.009596347808838 0.996215522289276 0.000000000000000
2.623988151550293 -3.641463041305542 0.180272012948990 1.000000000000000
2.625616550445557 -2.786041498184204 0.347055345773697 0.000000000000000
2.626612424850464 -3.840958118438721 0.689611017704010 0.000000000000000
2.626976013183594 -5.243893146514893 1.571549415588379 1.000000000000000
2.627165079116821 -6.759585857391357 1.943213462829590 0.000000000000000
2.634557008743286 -13.195449829101562 1.433268547058105 0.000000000000000
2.637391567230225 -14.141919136047363 0.993334829807281 0.000000000000000
2.650103092193604 -5.891519546508789 1.730981826782227 0.000000000000000
2.655633449554443 -11.747638702392578 0.437425911426544 0.000000000000000
2.656133890151978 -2.134365558624268 0.241856515407562 0.000000000000000
2.659133195877075 -12.708601951599121 1.072027206420898 0.000000000000000
2.659164667129517 -14.465888977050781 1.281633496284485 0.000000000000000
2.662583589553833 -2.343586683273315 0.251768678426743 0.000000000000000
2.665645599365234 -2.359359264373779 0.740441441535950 0.000000000000000
2.673279762268066 -14.422313690185547 0.025600476190448 0.000000000000000
2.683151960372925 -2.578539371490479 0.373404413461685 0.000000000000000
2.683457851409912 -14.061842918395996 0.107439376413822 0.000000000000000
2.691243886947632 -8.914952278137207 0.768884122371674 0.000000000000000
2.692067623138428 -4.564393043518066 0.905798971652985 0.000000000000000
2.697659492492676 -5.490105152130127 1.272353768348694 0.000000000000000
2.697929620742798 -1.710309386253357 0.189780399203300 1.000000000000000
2.700155973434448 -11.929102897644043 0.844541251659393 0.000000000000000
2.704419136047363 -14.225610733032227 1.223588466644287 0.000000000000000
2.716601610183716 -3.193012475967407 0.446545988321304 0.000000000000000
2.720520973205566 -14.610300064086914 1.227054834365845 0.000000000000000
2.725310564041138 -3.955582141876221 0.711894392967224 0.000000000000000
2.725424289703369 -2.932700395584106 0.362945467233658 0.000000000000000
2.726933479309082 -12.309550285339355 0.022005099803209 0.000000000000000
2.727482318878174 -4.079036712646484 1.314800858497620 0.000000000000000
2.735677242279053 -10.656305313110352 1.346959590911865 0.000000000000000
2.736150979995728 -13.957884788513184 1.515036582946777 0.000000000000000
2.744539737701416 -7.785734176635742 1.717107295989990 0.000000000000000
2.746947288513184 -14.089801788330078 0.162860184907913 0.000000000000000
2.748704671859741 -3.377700090408325 0.905798614025116 0.000000000000000
2.749135971069336 -1.772783875465393 0.435304284095764 0.000000000000000
2.750721931457520 -6.002836704254150 1.769287109375000 0.000000000000000
2.752464056015015 -13.265481948852539 1.092428445816040 0.000000000000000
2.754797458648682 -2.342527389526367 0.481209099292755 0.000000000000000
2.756062030792236 -1.667947173118591 0.306221306324005 0.000000000000000
2.757667303085327 -4.492708206176758 0.901081204414368 0.000000000000000
2.763114213943481 -13.050942420959473 0.921142399311066 0.000000000000000
2.765432834625244 -13.850954055786133 1.111608505249023 0.000000000000000
2.769937515258789 -2.485497236251831 0.278521567583084 0.000000000000000
2.773191690444946 -12.453496932983398 1.078091621398926 0.000000000000000
2.775561809539795 -2.244239091873169 0.323581248521805 0.000000000000000
2.776245117187500 -4.120759963989258 1.331365227699280 0.000000000000000
2.776472330093384 -2.163916349411011 0.334610223770142 0.000000000000000
2.778025388717651 -4.631096839904785 1.123288035392761 0.000000000000000
2.778239965438843 -2.989533185958862 0.297553837299347 0.000000000000000
2.779489278793335 -9.622200965881348 1.137592434883118 0.000000000000000
2.779658555984497 -4.750722885131836 0.940844714641571 1.000000000000000
2.786369323730469 -7.770061969757080 0.299795687198639 0.000000000000000
2.786492586135864 -2.412118434906006 0.369810134172440 0.000000000000000
2.792154073715210 -1.772911787033081 0.288202583789825 0.000000000000000
2.796146392822266 -13.284755706787109 0.336527884006500 0.000000000000000
2.799056053161621 -2.440138101577759 0.372605681419373 0.000000000000000
2.802256345748901 -9.036993026733398 1.967994093894958 0.000000000000000
2.803213834762573 -14.378407478332520 1.068052530288696 0.000000000000000
2.812676191329956 -2.541626214981079 0.360349446535110 0.000000000000000
2.822838306427002 -8.231704711914062 0.316055804491043 0.000000000000000
2.828766345977783 -3.213238000869751 1.147086024284363 0.000000000000000
2.833309650421143 -4.209739685058594 0.867383360862732 0.000000000000000
2.834715127944946 -13.162225723266602 1.137704968452454 0.000000000000000
2.842511892318726 -10.650019645690918 1.466843605041504 0.000000000000000
2.843720912933350 -7.978164672851562 0.805108487606049 0.000000000000000
2.844854116439819 -3.701061487197876 0.970963895320892 0.000000000000000
2.849627971649170 -10.869091987609863 1.196861863136292 0.000000000000000
2.849636554718018 -8.267508506774902 1.818928241729736 0.000000000000000
2.853138208389282 -12.403729438781738 0.095521681010723 0.000000000000000
